# .PCD v0.7 - Point Cloud Data file format
VERSION 0.7
FIELDS x y z
SIZE 4 4 4
TYPE F F F
COUNT 1 1 1
WIDTH 85
HEIGHT 1
VIEWPOINT 0 0 0 1 0 0 0
POINTS 85
DATA ascii
5.1158299 -0.211252 1.57354
5.1459899 -0.22104301 1.49199
5.0977101 -0.239816 1.4972301
5.0690999 -0.315667 1.51579
4.93082 -0.25152099 1.68353
5.0742002 -0.27975401 1.52572
5.0944901 -0.25679001 1.51683
5.0482402 -0.400029 1.24122
5.0701599 -0.31689399 1.50454
5.0576601 -0.39914799 1.1989501
5.0872102 -0.290153 1.5154099
5.1072998 -0.26738501 1.50081
5.10569 -0.235102 1.45827
5.0927401 -0.25564301 1.52262
5.0793099 -0.379188 1.23822
5.0910702 -0.33777601 1.23912
5.0770702 -0.30842501 1.53483
5.12251 -0.25426701 1.5003901
5.0731702 -0.31675699 1.54293
5.08005 -0.31797501 1.55037
5.0889802 -0.332479 1.51738
5.0966802 -0.29147699 1.54142
5.0387301 -0.416868 1.26126
5.0541601 -0.40669999 1.24353
5.07514 -0.336575 1.55185
5.0899901 -0.28429401 1.5434
5.1035099 -0.28873101 1.21424
5.0861402 -0.38099399 1.2793
5.0782399 -0.30875 1.5441999
5.0537801 -0.41389599 1.24595
5.1036601 -0.313822 1.4723901
5.0952702 -0.23589601 1.24615
5.07057 -0.37432 1.23524
5.0662699 -0.39238399 1.23334
5.08887 -0.29137 1.53581
5.1367998 -0.264375 1.50499
4.9411898 -0.25529501 1.70507
5.0865998 -0.28810099 1.5384099
5.09905 -0.24867199 1.53567
5.1265802 -0.25753799 1.51519
5.0953102 -0.35595801 1.28052
5.0998702 -0.26213601 1.54289
5.0718598 -0.332477 1.55049
5.0949998 -0.25656 1.54339
5.0862498 -0.36479899 1.2692
5.1140099 -0.256883 1.5389
5.08424 -0.28745401 1.54151
5.1065698 -0.229735 1.53132
5.0809698 -0.29942 1.5373501
5.08814 -0.299615 1.5336
5.1041098 -0.32892001 1.48589
5.0976 -0.23360801 1.54272
5.0494099 -0.41281399 1.2496001
4.9383001 -0.25644201 1.6921901
5.0791798 -0.37727499 1.2747101
5.0808401 -0.388818 1.2876
5.0907102 -0.263289 1.53223
5.0912299 -0.25404599 1.52742
5.10428 -0.249938 1.50236
5.1640201 -0.222969 1.53995
5.0833702 -0.321796 1.5613199
5.1029501 -0.26138499 1.5597399
5.1054502 -0.25378501 1.2597899
5.0946002 -0.29232401 1.56385
5.0693998 -0.402695 1.27043
5.06354 -0.35808101 1.2516
5.06706 -0.37764499 1.24514
5.1080098 -0.25311401 1.27185
5.06388 -0.384231 1.24332
5.0659099 -0.33342999 1.53705
5.09235 -0.27170601 1.54117
5.0934901 -0.352669 1.24028
5.0868602 -0.34112099 1.24406
5.0866399 -0.287985 1.5349801
5.1055999 -0.24009299 1.5645601
5.0868402 -0.35330901 1.25962
5.0518198 -0.409787 1.23902
5.0826702 -0.31156901 1.54493
4.95189 -0.24411701 1.7027299
5.0924001 -0.37274301 1.27604
5.1017499 -0.241707 1.5426
5.07478 -0.316874 1.53382
5.0998201 -0.24913201 1.5088201
5.0356002 -0.41715601 1.27915
5.0886598 -0.26315799 1.51956
