# .PCD v0.7 - Point Cloud Data file format
VERSION 0.7
FIELDS x y z
SIZE 4 4 4
TYPE F F F
COUNT 1 1 1
WIDTH 66
HEIGHT 1
VIEWPOINT 0 0 0 1 0 0 0
POINTS 66
DATA ascii
7.9649901 0.417941 6.4935498
7.9620299 0.40757 6.4031701
7.9545999 0.40284801 6.33531
7.9643698 0.39249101 6.1910601
7.98453 0.36182201 5.84694
7.9857998 0.419581 6.4901099
7.9567399 0.36912799 5.9822698
7.9707298 0.38748199 6.1807599
7.9557199 0.36297399 5.9330802
7.9590998 0.383001 6.0762
7.9615598 0.36438501 5.9396
7.97646 0.40414399 6.3793602
7.9608002 0.36576301 5.96315
7.9604402 0.36270401 5.9513502
7.9607902 0.366532 5.9660401
7.9595799 0.37079599 5.94629
7.9646502 0.38551301 6.1640801
7.9569201 0.38606799 6.0875702
7.9594998 0.36401901 5.9384198
7.9539399 0.25654799 6.1136398
7.9570298 0.36397299 5.9398999
7.96527 0.403418 6.3586702
7.95822 0.36939499 5.9879799
7.9551201 0.36314699 5.9517002
7.9483199 0.223903 6.0282302
7.95857 0.36668599 5.9731498
7.9635601 0.407235 6.4127302
7.9657202 0.40212801 6.3390999
7.9587102 0.36618701 5.9450698
7.9618101 0.38641199 6.1981702
7.9630198 0.40381899 6.3698401
7.9586401 0.36303401 5.9373999
7.9597702 0.36389101 5.9486198
7.9665198 0.38741699 6.1787901
7.9632702 0.37562501 6.0678802
7.96383 0.36893001 5.9808302
7.95894 0.36559701 5.9394002
7.9584298 0.366384 5.9537301
7.9518399 0.235117 6.0386701
7.9548001 0.36449799 5.93572
7.9573398 0.35966399 5.9538202
7.9553699 0.36508501 5.9517999
7.9570699 0.36194199 5.9882398
7.9547601 0.367089 5.9861999
7.9637899 0.406488 6.40028
7.96417 0.40472001 6.3724899
7.9596 0.37360501 5.9654598
7.96071 0.366023 5.9578199
7.95718 0.36796901 5.96698
7.9572101 0.38600001 6.1987801
7.9607801 0.358574 5.9353099
7.9577198 0.36466399 5.93262
7.9576101 0.36953101 5.98455
7.9575801 0.38474101 6.1669002
7.9633799 0.36135799 5.9368501
7.9675598 0.41727799 6.4990301
7.9672899 0.40632099 6.3680501
7.9639301 0.367093 5.9664001
7.9600601 0.364766 5.9334698
7.9465499 0.233299 6.0309501
7.9609799 0.377395 6.0563302
7.9588199 0.36578301 5.9443002
7.9605198 0.36363301 5.95433
7.9586301 0.37039399 5.9696398
7.9586401 0.36940801 5.9829302
7.9613199 0.36497101 5.9730401
