# .PCD v0.7 - Point Cloud Data file format
VERSION 0.7
FIELDS x y z
SIZE 4 4 4
TYPE F F F
COUNT 1 1 1
WIDTH 75
HEIGHT 1
VIEWPOINT 0 0 0 1 0 0 0
POINTS 75
DATA ascii
4.1309199 0.72691399 6.6930599
4.1326299 0.72986901 6.6894898
4.1410899 0.72427601 6.6962099
4.1335201 0.72938299 6.6924601
4.13801 0.73001403 6.6929798
4.1427898 0.73043901 6.6946702
4.1493702 0.73039103 6.69484
4.1486802 0.73056501 6.69521
4.16155 0.73133999 6.6950102
4.1356301 0.72534502 6.6926398
4.1282701 0.72850001 6.6909499
4.1456299 0.72430903 6.6963201
4.1326199 0.73113102 6.6946201
4.1404099 0.73091698 6.6947098
4.1472902 0.730838 6.6955099
4.1531601 0.73096901 6.69662
4.1553898 0.73127699 6.69665
4.1690001 0.72123402 6.7020402
4.1381402 0.72966999 6.6918602
4.1354299 0.72441602 6.6908202
4.15523 0.73127002 6.6960101
4.1574798 0.73141301 6.6961498
4.1316099 0.729756 6.6912098
4.1463599 0.73142499 6.6952801
4.14605 0.72410899 6.6917
4.1410599 0.72461897 6.6913099
4.1368198 0.73085499 6.6928902
4.13936 0.730169 6.6923299
4.1507401 0.72323799 6.6898799
4.1540298 0.72317201 6.68995
4.13379 0.73135698 6.6922798
4.1395702 0.73049599 6.6946301
4.1540799 0.72922701 6.6993899
4.1482601 0.72383702 6.68996
4.1447401 0.72285098 6.6898899
4.1504202 0.73002201 6.6989598
4.1375299 0.72552902 6.6915302
4.1409402 0.72402501 6.6904602
4.1483498 0.72804099 6.6976099
4.1319199 0.73080802 6.6924901
4.2021399 0.725348 6.7093
4.1462002 0.72379398 6.6900201
4.1429601 0.72520602 6.6904998
4.1382098 0.72561097 6.6904998
4.1395502 0.72350699 6.68993
4.1533399 0.723436 6.6893601
4.1504898 0.72865999 6.7006001
4.1454902 0.72418398 6.68964
4.1382399 0.73108 6.6957698
4.1335001 0.72617197 6.6932201
4.1512299 0.724406 6.6911001
4.1383801 0.72491002 6.6916699
4.1989899 0.71964401 6.7115302
4.1307502 0.72587597 6.6935701
4.1343498 0.72524899 6.6913099
4.1443 0.72488397 6.6894598
4.1409602 0.72616702 6.6904402
4.1947598 0.729891 6.68715
4.1993399 0.71951598 6.7120199
4.1423998 0.72508597 6.6974001
4.1501398 0.72828102 6.6912699
4.2027898 0.71835202 6.71137
4.1507001 0.72376299 6.6887698
4.1750102 0.73094702 6.68852
4.1329198 0.725142 6.6907301
4.13592 0.72599101 6.69414
4.1978898 0.724406 6.71032
4.1338 0.728598 6.6968498
4.1315799 0.72685099 6.6965399
4.1543498 0.72468799 6.6902299
4.1319299 0.72619301 6.6933298
4.2063498 0.72046298 6.7136898
4.1391101 0.72457403 6.69906
4.15099 0.72492701 6.6903701
4.1487298 0.72453803 6.6902299
