# .PCD v0.7 - Point Cloud Data file format
VERSION 0.7
FIELDS x y z
SIZE 4 4 4
TYPE F F F
COUNT 1 1 1
WIDTH 76
HEIGHT 1
VIEWPOINT 0 0 0 1 0 0 0
POINTS 76
DATA ascii
6.7881098 -0.34170899 5.1856999
6.7655501 -0.348423 5.17593
6.7473602 -0.348059 5.17731
6.7319002 -0.34643099 5.1761398
6.7815499 -0.338296 5.1901302
6.7309799 -0.349107 5.1796398
6.7224302 -0.345608 5.1756201
6.7200198 -0.34546399 5.1752501
6.7118201 -0.34479699 5.1736202
6.7075 -0.34383601 5.1714501
6.7034402 -0.34199399 5.1709599
6.69768 -0.341939 5.17066
6.6922402 -0.34138101 5.1693001
6.6821499 -0.338833 5.1635499
6.6876602 -0.338604 5.1666899
6.7242599 -0.34625399 5.1949201
6.6868601 -0.337253 5.1739802
6.7210598 -0.340132 5.18542
6.6812301 -0.33782601 5.1781502
6.66748 -0.335522 5.1725001
6.7000299 -0.341313 5.1996899
6.6905198 -0.33776101 5.1947899
6.6819701 -0.33904999 5.1659999
6.7568002 -0.34756199 5.1758699
6.7284899 -0.34691501 5.1765699
6.7147398 -0.34523499 5.1737199
6.7072601 -0.34251499 5.1722598
6.6954498 -0.34128499 5.1702399
6.6854901 -0.33985999 5.1676302
6.6726298 -0.33708501 5.1620998
6.7168002 -0.33956099 5.18186
6.6613302 -0.335316 5.17451
6.7121301 -0.339228 5.18542
6.6853099 -0.33994401 5.1956501
6.6792402 -0.339569 5.1949401
6.6634798 -0.334604 5.20228
6.72611 -0.34569299 5.1750598
6.6551199 -0.33368301 5.1690898
6.69344 -0.33817801 5.1950998
6.72966 -0.34570399 5.17451
6.71035 -0.34417999 5.1736002
6.70331 -0.342805 5.1710801
6.6936598 -0.34072 5.1684699
6.7231002 -0.344551 5.1748199
6.70471 -0.33843899 5.1814699
6.6788702 -0.33864 5.1956401
6.6268401 -0.332663 5.1416302
6.6497698 -0.331669 5.1538301
6.6134501 -0.331236 5.1372499
6.6441998 -0.33134499 5.1554098
6.7035298 -0.34110099 5.1641898
6.6560402 -0.337533 5.1556201
6.72821 -0.34674799 5.1560898
6.7055898 -0.344024 5.1595502
6.6876998 -0.341584 5.1610999
6.6683898 -0.338909 5.1626
6.6749601 -0.340042 5.1630201
6.6978202 -0.34413999 5.1635599
6.6778898 -0.339178 5.1668601
6.7221398 -0.34467101 5.1700301
6.6579299 -0.33924401 5.16113
6.7017999 -0.34367099 5.1704998
6.6629701 -0.33116201 5.1972399
6.70925 -0.346003 5.1760802
6.6739202 -0.34108701 5.1697998
6.7350302 -0.34770301 5.1799798
6.6930699 -0.344785 5.1697402
6.68503 -0.34139001 5.1739702
6.7406201 -0.351013 5.1855698
6.70818 -0.344778 5.1785798
6.7209902 -0.34741199 5.1826301
6.72089 -0.34689301 5.1829901
6.7478199 -0.35066199 5.18714
6.7206898 -0.34683299 5.1779299
6.73032 -0.34809601 5.1852999
6.7052698 -0.32458901 5.1960402
