# .PCD v0.7 - Point Cloud Data file format
VERSION 0.7
FIELDS x y z
SIZE 4 4 4
TYPE F F F
COUNT 1 1 1
WIDTH 715
HEIGHT 1
VIEWPOINT 0 0 0 1 0 0 0
POINTS 715
DATA ascii
-4.0603399 -1.26173 2.3048501
-4.1167302 -1.27159 2.43889
-4.1135602 -1.26519 2.45012
-4.1455202 -1.21243 2.36028
-4.0907502 -1.2800699 2.1890299
-4.0862899 -1.27712 2.2128699
-4.0756998 -1.27176 2.2669001
-4.06387 -1.26099 2.3008001
-4.1833501 -1.21885 2.23313
-4.1916599 -1.21684 2.2966399
-4.1572199 -1.21746 2.3401201
-4.2243099 -1.22077 2.3248301
-4.10251 -1.26667 2.3633101
-4.14779 -1.21562 2.3408699
-4.1050601 -1.31322 1.9253401
-4.10849 -1.30995 1.93608
-4.0941401 -1.30072 1.97185
-4.0959802 -1.30235 2.00611
-4.1083999 -1.29851 2.03703
-4.1038198 -1.29371 2.08675
-4.1031098 -1.2954 2.1296401
-4.1077299 -1.28669 2.1549499
-4.09867 -1.28514 2.1965401
-4.2005701 -1.2527 1.9762
-4.21668 -1.25576 2.0065999
-4.1114602 -1.28069 2.27758
-4.1874599 -1.2459199 2.0329199
-4.1022201 -1.27324 2.3380699
-4.1833601 -1.23836 2.0768499
-4.1334801 -1.2325701 2.1159999
-4.11761 -1.2742701 2.36779
-4.2046099 -1.23734 2.0818901
-4.19241 -1.23779 2.1021099
-4.1767998 -1.2325 2.1377599
-4.2054901 -1.2326 2.1859701
-4.2075 -1.22285 2.2710099
-4.2091298 -1.22101 2.3099
-4.0936298 -1.30809 1.92463
-4.09934 -1.30296 1.97126
-4.119 -1.26744 1.85928
-4.09656 -1.29607 2.0748401
-4.1113 -1.2903399 2.0943601
-4.1635599 -1.2517999 1.98268
-4.1080399 -1.28793 2.1744699
-4.2366099 -1.25718 1.9584301
-4.1103902 -1.28435 2.2195699
-4.1702199 -1.2483701 2.0473001
-4.1901698 -1.24349 2.03688
-4.1055899 -1.28095 2.2755401
-4.2063398 -1.24597 2.0604899
-4.1253099 -1.28392 2.3011
-4.10357 -1.27363 2.3156199
-4.1010799 -1.26919 2.3712299
-4.19946 -1.23296 2.1759601
-4.2014499 -1.22728 2.2200401
-4.1683898 -1.22734 2.2578299
-4.1996102 -1.22267 2.23809
-4.1999898 -1.2227401 2.27686
-4.1865401 -1.2123801 2.3229101
-4.1595201 -1.21225 2.3546801
-4.1697402 -1.21451 2.3970699
-4.19138 -1.23722 2.10236
-4.19835 -1.2443 2.0619099
-4.1108899 -1.28501 2.2281799
-4.1124902 -1.32354 1.79803
-4.1104202 -1.31741 1.83959
-4.10426 -1.31942 1.91307
-4.1094899 -1.3111399 1.92558
-4.1504002 -1.26265 1.81494
-4.1067801 -1.26298 1.8591
-4.1507502 -1.26124 1.83184
-4.1129098 -1.30768 2.0281899
-4.11201 -1.29778 2.0717399
-4.1135602 -1.29882 2.1008301
-4.1491699 -1.24698 1.97823
-4.1192098 -1.2898099 2.1759501
-4.2299099 -1.25867 1.96308
-4.2165599 -1.2570601 1.97137
-4.1114202 -1.2866499 2.2027099
-4.1096301 -1.2924 2.22719
-4.2026801 -1.2519701 1.99464
-4.1156502 -1.28544 2.2246101
-4.2003002 -1.25019 2.0190201
-4.2032199 -1.24356 2.0794699
-4.1071 -1.2756701 2.32844
-4.0993299 -1.27403 2.3304801
-4.1872802 -1.23631 2.09902
-4.15977 -1.23586 2.12953
-4.1621499 -1.23368 2.1847799
-4.1262398 -1.27363 2.4082
-4.1922798 -1.23118 2.17189
-4.2069998 -1.2317899 2.1925299
-4.1909299 -1.21905 2.2662599
-4.2103 -1.21821 2.3189199
-4.35776 -0.89803398 1.95408
-4.37709 -0.86985099 1.94271
-4.3807702 -0.85792398 1.9452
-4.38375 -0.85855001 1.96845
-4.1091399 -1.3400199 1.6628799
-4.1132498 -1.33603 1.66492
-4.1118498 -1.33406 1.67609
-4.1113501 -1.32871 1.74102
-4.1068702 -1.33345 1.77299
-4.09548 -1.2720799 1.70612
-4.1606698 -1.27852 1.68555
-4.1104798 -1.32144 1.8440599
-4.1121502 -1.32069 1.85932
-4.15555 -1.27384 1.71137
-4.1612701 -1.2744401 1.7258101
-4.1510401 -1.26738 1.75091
-4.1071301 -1.2681201 1.79136
-4.1188502 -1.31393 1.9129699
-4.09304 -1.25948 1.81679
-4.1609902 -1.26706 1.79848
-4.1103001 -1.30827 1.9669
-4.1201801 -1.30935 2.00562
-4.12675 -1.3087699 2.0207701
-4.1117301 -1.30164 2.0594599
-4.1106701 -1.30109 2.0831399
-4.1806202 -1.2615401 1.91229
-4.1569901 -1.25265 1.95227
-4.1206102 -1.29597 2.13346
-4.1145501 -1.29682 2.16903
-4.2102699 -1.25424 1.98016
-4.2093801 -1.25122 1.99621
-4.1185999 -1.28839 2.2198501
-4.1153102 -1.28882 2.22469
-4.1940498 -1.24274 2.06218
-4.1248899 -1.2844 2.28932
-4.1605101 -1.2384599 2.1094
-4.1552401 -1.24002 2.15049
-4.1149998 -1.27911 2.3437901
-4.2090902 -1.2388999 2.1194401
-4.2041302 -1.23841 2.1227901
-4.1225801 -1.27604 2.3571701
-4.1452098 -1.27841 2.44806
-4.1875801 -1.21951 2.2962601
-4.1571202 -1.22221 2.3433101
-4.1995301 -1.21433 2.33444
-4.18925 -1.21182 2.3350699
-4.17278 -1.21867 2.3859701
-4.34164 -0.90978402 1.80871
-4.3448701 -0.90392298 1.80239
-4.3547602 -0.90345699 1.85264
-4.3438101 -0.90427202 1.89649
-4.3583698 -0.89135402 1.95099
-4.3575902 -0.87685502 1.81003
-4.3835802 -0.85944903 1.84728
-4.3698401 -0.85863203 1.8937401
-4.3871298 -0.85453898 1.86202
-4.3924499 -0.85694802 1.89935
-4.3815498 -0.855995 1.9312299
-4.3863301 -0.85804701 1.9617701
-4.1547999 -1.28733 1.56461
-4.11833 -1.32333 1.82328
-4.15589 -1.27165 1.71775
-4.1203899 -1.36201 1.4361399
-4.1244898 -1.36262 1.44428
-4.1206498 -1.3568 1.45725
-4.1198902 -1.35474 1.49638
-4.1209602 -1.35348 1.50425
-4.1188598 -1.35233 1.51473
-4.0998302 -1.29559 1.44523
-4.1181998 -1.3462 1.56135
-4.1510701 -1.29469 1.44932
-4.1066399 -1.29643 1.48563
-4.1179299 -1.34606 1.57329
-4.1120501 -1.34883 1.5952801
-4.1203499 -1.3434 1.59085
-4.1572599 -1.2965 1.48248
-4.12076 -1.3436199 1.60351
-4.1076698 -1.29143 1.5457
-4.1545501 -1.2895 1.5183901
-4.1136298 -1.33946 1.66616
-4.1602702 -1.28904 1.5509599
-4.12146 -1.33302 1.7026401
-4.11797 -1.33318 1.7057199
-4.1026301 -1.2780401 1.62571
-4.1001401 -1.28047 1.6330301
-4.1531501 -1.28039 1.60493
-4.1203599 -1.32974 1.7560101
-4.15558 -1.2778 1.6400599
-4.1188202 -1.32637 1.78095
-4.15239 -1.27728 1.6562099
-4.1206298 -1.3219399 1.85216
-4.1595602 -1.27084 1.7291
-4.1194601 -1.31853 1.8801
-4.15446 -1.26739 1.74142
-4.1147199 -1.31539 1.91278
-4.1578798 -1.26553 1.76798
-4.1194 -1.31271 1.93985
-4.1507702 -1.2592 1.81113
-4.1198602 -1.30681 2.0037899
-4.1130199 -1.31529 2.03262
-4.1245499 -1.30656 2.0199499
-4.1206198 -1.3068399 2.0241499
-4.1219301 -1.3009 2.0943699
-4.1211901 -1.29953 2.1378
-4.1499701 -1.24878 1.98496
-4.1967602 -1.25225 1.9747601
-4.1227598 -1.29365 2.19256
-4.1241899 -1.29061 2.2336199
-4.2070498 -1.24771 2.0458701
-4.2026501 -1.24263 2.08425
-4.1708298 -1.24208 2.1131999
-4.20502 -1.23858 2.12128
-4.13135 -1.28211 2.3687
-4.2090602 -1.23349 2.1833799
-4.2120399 -1.23103 2.20083
-4.1574798 -1.28499 2.4467499
-4.18471 -1.22844 2.3117199
-4.3470998 -0.932338 1.55963
-4.34547 -0.93247497 1.56268
-4.3558798 -0.92325097 1.55985
-4.3621898 -0.91072601 1.57774
-4.3558302 -0.91618502 1.66046
-4.3698401 -0.90898103 1.6302
-4.3674798 -0.90889001 1.63327
-4.3544202 -0.910649 1.70669
-4.3536301 -0.91549098 1.74141
-4.35744 -0.91987598 1.76569
-4.3829298 -0.87497199 1.56985
-4.3723402 -0.87125701 1.60346
-4.3624601 -0.89290702 1.79328
-4.3836298 -0.87043297 1.6229
-4.3647799 -0.88895202 1.80905
-4.3605599 -0.89539599 1.92598
-4.3651299 -0.90064597 1.96197
-4.3786201 -0.86454701 1.6817
-4.3580799 -0.88299102 1.88217
-4.3877802 -0.859635 1.6732399
-4.3888898 -0.86360401 1.70698
-4.3891702 -0.85997099 1.72909
-4.37989 -0.85804302 1.85271
-4.37362 -0.85794502 1.86507
-4.3782601 -0.85607398 1.90422
-4.11936 -1.37937 1.37881
-4.1276002 -1.37186 1.39495
-4.1231999 -1.36984 1.42013
-4.1283998 -1.36265 1.46782
-4.1080098 -1.3036 1.40653
-4.12326 -1.35684 1.48083
-4.1220598 -1.3615201 1.4986399
-4.1120701 -1.3038599 1.43112
-4.1233201 -1.35527 1.50708
-4.1554999 -1.30023 1.42278
-4.1233101 -1.34863 1.54645
-4.1623402 -1.30146 1.44885
-4.12391 -1.3499399 1.55872
-4.11057 -1.29934 1.50184
-4.1676698 -1.29661 1.4977
-4.12184 -1.3449 1.61717
-4.1194801 -1.34675 1.63372
-4.1580601 -1.29153 1.51689
-4.1265802 -1.34259 1.63267
-4.1235299 -1.34306 1.63574
-4.1586099 -1.29011 1.52483
-4.1244001 -1.33604 1.68255
-4.1180701 -1.33321 1.7333
-4.1661801 -1.28246 1.6224101
-4.1234598 -1.32917 1.76182
-4.1083999 -1.2775 1.68194
-4.1621799 -1.27878 1.67009
-4.1177802 -1.3283 1.80689
-4.0984201 -1.3293101 1.82383
-4.1602402 -1.27785 1.68318
-4.1227698 -1.3236001 1.8376499
-4.1129899 -1.27364 1.75296
-4.1637998 -1.27395 1.72839
-4.1648102 -1.27244 1.73891
-4.1240802 -1.3179801 1.9031301
-4.1606102 -1.26596 1.78848
-4.1098499 -1.26257 1.83734
-4.1256299 -1.30459 2.0483799
-4.2241101 -1.25562 1.95733
-4.1570201 -1.25007 2.0004399
-4.1233001 -1.29882 2.15839
-4.1255498 -1.29491 2.16785
-4.2086 -1.25064 2.0401199
-4.1347399 -1.28645 2.3007901
-4.1366301 -1.2828701 2.3664601
-4.2143502 -1.23515 2.1759501
-4.2072101 -1.22373 2.2515299
-4.1775198 -1.22923 2.2975399
-4.2045202 -1.21638 2.25775
-4.3403802 -0.93672299 1.48431
-4.3560801 -0.93223798 1.49314
-4.3675599 -0.922337 1.50802
-4.3634801 -0.92666602 1.5568
-4.3555102 -0.92263001 1.60014
-4.3638401 -0.90978903 1.61206
-4.3840399 -0.88779199 1.50563
-4.3643098 -0.90816802 1.63256
-4.3899202 -0.885584 1.51467
-4.3839202 -0.88233101 1.5634
-4.3688002 -0.901546 1.6855201
-4.3643699 -0.91017902 1.73729
-4.38873 -0.88167 1.58406
-4.3678498 -0.91563499 1.79649
-4.3645501 -0.91823602 1.8150001
-4.40414 -0.877985 1.57461
-4.3930402 -0.87802202 1.58971
-4.3592801 -0.89108801 1.77877
-4.3973098 -0.86958897 1.6354899
-4.3846798 -0.86502701 1.69855
-4.3688502 -0.89427203 1.90358
-4.3772502 -0.905258 1.9597501
-4.382 -0.861678 1.71992
-4.3705502 -0.87372899 1.8560801
-4.3866701 -0.85845202 1.77345
-4.3814998 -0.85836101 1.7807699
-4.3849401 -0.85603702 1.89645
-4.38413 -0.85655999 1.9015599
-4.38026 -0.85089803 1.96873
-4.1277599 -1.36376 1.43213
-4.1156802 -1.29926 1.4846801
-4.1621299 -1.29496 1.46498
-4.1117401 -1.29527 1.53232
-4.1145501 -1.28218 1.6531399
-4.1174698 -1.27557 1.72728
-4.1628199 -1.26322 1.83471
-4.2149401 -1.25495 2.0232
-4.2195201 -1.24172 2.1352501
-4.3696699 -0.94435501 1.39101
-4.3833899 -0.96143299 1.42431
-4.3888302 -0.91418701 1.3638099
-4.3861098 -0.90932697 1.3954099
-4.36204 -0.93277699 1.61763
-4.36481 -0.91721803 1.70368
-4.1294799 -1.37536 1.40283
-4.1279101 -1.35906 1.4867001
-4.15798 -1.29572 1.44427
-4.1250601 -1.3547 1.54855
-4.1602302 -1.29401 1.45661
-4.1243 -1.35127 1.56157
-4.1620898 -1.29296 1.50473
-4.1251302 -1.34615 1.60795
-4.1619802 -1.29247 1.5129
-4.1268101 -1.3444 1.63279
-4.1637101 -1.29243 1.53881
-4.12815 -1.3391 1.68383
-4.16575 -1.28518 1.59308
-4.12641 -1.33451 1.70927
-4.1655798 -1.2830499 1.63053
-4.1275601 -1.3282 1.79997
-4.1240902 -1.3251801 1.85902
-4.1665502 -1.27044 1.75536
-4.1262898 -1.31929 1.89929
-4.1290202 -1.3132401 1.95556
-4.1287899 -1.31265 1.9838099
-4.1275601 -1.30221 2.0891399
-4.1644402 -1.25102 2.00196
-4.2191601 -1.2588 2.0115299
-4.2143102 -1.25343 2.03759
-4.1611199 -1.29741 2.4245801
-4.3671098 -0.93421298 1.48155
-4.3717799 -0.93870503 1.4903899
-4.3650699 -0.92642301 1.55943
-4.3810301 -0.89439797 1.48172
-4.3681102 -0.92426401 1.58588
-4.37011 -0.92705601 1.63035
-4.3873301 -0.88641602 1.50319
-4.3664699 -0.916031 1.6567301
-4.3933702 -0.87626398 1.57776
-4.3861198 -0.867145 1.65864
-4.3839798 -0.86523801 1.67643
-4.39152 -0.86071998 1.69923
-4.3874698 -0.86172801 1.7574
-4.3849502 -0.85682797 1.87832
-4.3840299 -0.857894 1.82586
-4.1304598 -1.36529 1.44173
-4.1185899 -1.3092099 1.3900599
-4.1122198 -1.3027101 1.4295
-4.12532 -1.3566 1.4934
-4.1683102 -1.30238 1.44148
-4.1659799 -1.29719 1.4782
-4.3765001 -0.87411201 1.82781
-4.1312799 -1.35054 1.5763299
-4.1668701 -1.29468 1.52648
-4.1304798 -1.34438 1.64115
-4.11061 -1.26038 1.84945
-4.1276102 -1.31971 1.94073
-4.2158399 -1.25596 2.0048001
-4.17384 -1.2478 2.0321801
-4.2178602 -1.24945 2.06617
-4.1441998 -1.2919199 2.3106999
-4.37991 -0.949184 1.404
-4.1742401 -1.23701 2.1865001
-4.3683 -0.92685699 1.45574
-4.21772 -1.21787 2.27895
-4.3891902 -0.90374702 1.40952
-4.3761902 -0.93484902 1.54893
-4.3892498 -0.91561103 1.5041699
-4.3866301 -0.88549101 1.51215
-4.3624501 -0.92534202 1.68862
-4.3869901 -0.87798202 1.55168
-4.3877301 -0.87561297 1.56015
-4.3705101 -0.90178502 1.68362
-4.3668799 -0.90896899 1.72579
-4.37006 -0.89932698 1.71266
-4.3885999 -0.86167598 1.733
-4.3868299 -0.86089098 1.75255
-4.3734999 -0.89521599 1.90259
-4.37186 -0.89813602 1.91398
-4.39114 -0.89330399 1.47272
-4.1148601 -1.29638 1.52289
-4.1669502 -1.27947 1.6572599
-4.1182098 -1.27633 1.72171
-4.1630101 -1.26191 1.82919
-4.1715398 -1.24631 2.06089
-4.21878 -1.24924 2.1642499
-4.3664699 -0.91876602 1.66697
-4.3894701 -0.85832202 1.85265
-4.3838301 -0.85755497 1.87881
-4.1663799 -1.2930599 1.4885499
-4.1155601 -1.29132 1.55339
-4.1258001 -1.33807 1.69819
-4.1698799 -1.27851 1.66922
-4.1664801 -1.26594 1.80125
-4.2189598 -1.25668 1.98045
-4.3688698 -0.93526101 1.44989
-4.3663201 -0.92083502 1.48341
-4.3777099 -0.93651098 1.53131
-4.2206202 -1.22449 2.3148301
-4.3806601 -0.908544 1.53657
-4.3688898 -0.92262501 1.71051
-4.3817801 -0.886235 1.65209
-4.3704 -0.91910499 1.76094
-4.39047 -0.85891402 1.79755
-4.1297798 -1.33464 1.74672
-4.1828198 -1.2411 2.16379
-4.3821502 -0.88506699 1.49339
-4.3684402 -0.91000599 1.62401
-4.3930898 -0.87641299 1.57707
-4.1679101 -1.26039 1.8307
-4.2185402 -1.25021 2.0589399
-4.3752999 -0.94177198 1.4587899
-4.2224002 -1.22752 2.25105
-4.3879099 -0.88379699 1.50999
-4.3920898 -0.88120198 1.53766
-4.3702502 -0.91384399 1.68748
-4.3932099 -0.85899699 1.74237
-4.3728199 -0.89770103 1.88924
-4.1326098 -1.3241 1.86729
-4.1655102 -1.25817 1.84817
-4.3885102 -0.89986801 1.43627
-4.3804798 -0.91488498 1.46742
-4.2217202 -1.2413599 2.1354301
-4.3722901 -0.92803401 1.55637
-4.3789101 -0.93886697 1.60109
-4.38726 -0.86410898 1.67909
-4.3748798 -0.90640002 1.8941
-4.3731799 -0.883883 1.86964
-4.38693 -0.855896 1.94863
-4.1646399 -1.2644399 1.80862
-4.13451 -1.31919 1.94319
-4.1309299 -1.31379 1.9733
-4.3741598 -0.941998 1.41034
-4.1725998 -1.24989 2.01879
-4.2195401 -1.2552 2.0221901
-4.38445 -0.914976 1.4817899
-4.3681798 -0.921 1.50196
-4.3941798 -0.87838298 1.5620199
-4.2090402 -1.2047499 2.3524599
-4.3824 -0.89386302 1.6769201
-4.3709402 -0.91092402 1.7206399
-4.3898602 -0.86891299 1.6297801
-4.3863502 -0.85961998 1.86062
-4.2195101 -1.25542 2.00138
-4.2150798 -1.2508399 2.0613999
-4.1356602 -1.2955101 2.21719
-4.17486 -1.24099 2.1252999
-4.3854699 -0.88643998 1.4888099
-4.3856502 -0.91003799 1.53319
-4.39013 -0.88643497 1.50394
-4.3694401 -0.90805399 1.61634
-4.39536 -0.87848902 1.55155
-4.3900499 -0.86013103 1.74445
-4.3951898 -0.856426 1.80181
-4.3958802 -0.85574299 1.84447
-4.3789201 -0.89492297 1.95665
-4.1252398 -1.35447 1.51614
-4.1251602 -1.35375 1.527
-4.1149998 -1.29778 1.5176899
-4.1763101 -1.29842 2.4569499
-4.1251202 -1.35016 1.58384
-4.1261501 -1.3481899 1.59226
-4.1255002 -1.34551 1.62859
-4.1255999 -1.3447599 1.64118
-4.1248899 -1.34358 1.6536601
-4.16222 -1.29388 1.53847
-4.1664701 -1.29339 1.56222
-4.1146202 -1.2888401 1.60843
-4.1226802 -1.33816 1.71957
-4.1643701 -1.28822 1.58086
-4.1229401 -1.3374 1.73368
-4.1633301 -1.28793 1.5959899
-4.1630101 -1.28365 1.63223
-4.1663699 -1.28225 1.64192
-4.1095901 -1.28076 1.68629
-4.1258402 -1.33515 1.75894
-4.1261401 -1.33338 1.78862
-4.1280499 -1.32742 1.82552
-4.1631999 -1.27794 1.68339
-4.16154 -1.2772599 1.70031
-4.1634498 -1.27347 1.72392
-4.1280398 -1.32831 1.84648
-4.1398401 -1.32535 1.84734
-4.12954 -1.32179 1.8855799
-4.1273098 -1.32354 1.9124
-4.1652598 -1.26784 1.78172
-4.1284699 -1.31731 1.9781899
-4.1567602 -1.26215 1.8127199
-4.12849 -1.31479 2.0156
-4.1380401 -1.29117 2.27211
-4.16433 -1.30511 2.3578801
-4.1800098 -1.2336 2.3020699
-4.2177901 -1.2223901 2.3206301
-4.1328001 -1.31006 2.0440199
-3.9712901 -1.30831 2.21508
-4.13201 -1.30542 2.1039701
-4.1284599 -1.31327 2.1582201
-4.14117 -1.3010499 2.1594999
-4.2151198 -1.25732 1.99291
-4.13764 -1.30281 2.2244799
-4.1736498 -1.2464 2.0771501
-4.1725001 -1.24932 2.11693
-4.22083 -1.24658 2.0855801
-4.2151999 -1.2477 2.09553
-4.2147498 -1.23755 2.1793101
-4.2143502 -1.23476 2.2011001
-4.1927299 -1.23595 2.2629099
-4.2223802 -1.22447 2.2519801
-4.3674698 -0.93475902 1.63696
-4.3704901 -0.91952097 1.6509
-4.3705702 -0.916695 1.6786
-4.3734598 -0.90169102 1.70114
-4.3690701 -0.89853197 1.74149
-4.37293 -0.90574098 1.80937
-4.36976 -0.910761 1.8700401
-4.3705001 -0.89591998 1.77724
-4.37219 -0.90172899 1.83761
-4.3819299 -0.869335 1.6481
-4.3930001 -0.86762202 1.67147
-4.3852301 -0.86373001 1.72121
-4.38938 -0.859182 1.82451
-4.3850298 -0.85908598 1.83674
-4.3898902 -0.857961 1.90802
-4.3836498 -0.85778099 1.92579
-4.3976302 -0.853347 1.9170901
-4.3942599 -0.85406899 1.94164
-4.17556 -1.26025 1.95216
-4.1716099 -1.25218 1.98663
-4.2226901 -1.25176 1.99358
-4.1730499 -1.24647 2.0634301
-4.3720698 -0.92523098 1.57946
-4.3989801 -0.899764 1.53804
-4.3766699 -0.93897998 1.60899
-4.3896499 -0.874901 1.57458
-4.36448 -0.90152901 1.66019
-4.3720298 -0.924505 1.69197
-4.17974 -1.2417001 2.1953399
-4.15382 -1.3081501 2.32534
-4.3889699 -0.86779702 1.63967
-4.2115998 -1.21366 2.28215
-4.3727002 -0.917099 1.79128
-4.37749 -0.86788499 1.73133
-4.37117 -0.89316201 1.92217
-4.3802299 -0.91184002 1.88039
-4.3908 -0.85766 1.8555
-4.3909798 -0.85373998 1.97062
-4.3884301 -0.85848498 1.91184
-4.2221498 -1.2407 2.1512001
-4.3771701 -0.928734 1.70903
-4.1982002 -1.27438 2.27439
-4.2248702 -1.2189699 2.2652299
-4.3786201 -0.91063601 1.89635
-4.37533 -0.90713203 1.909
-4.3764801 -0.90345103 1.97451
-4.3780599 -0.91733903 1.8429199
-4.3908801 -0.85584801 1.81619
-4.3768401 -0.86942202 1.92342
-4.3902798 -0.85292298 1.95426
-4.3768501 -0.91631597 1.86904
-4.38691 -0.87481302 1.8773
-4.38903 -0.85260201 1.86321
-4.3860202 -0.85605103 1.89833
-4.3894 -0.85490298 1.92515
-4.3779101 -0.84191102 1.95552
-4.1928 -1.21364 2.24687
-4.2004099 -1.23765 2.1454899
-4.2139702 -1.22463 2.2864001
-4.2141199 -1.24245 2.1108401
-4.1568599 -1.28082 2.4579301
-4.1424499 -1.28223 2.3877399
-4.1420898 -1.2881401 2.3290401
-3.9661801 -1.3100801 2.2232201
-4.12676 -1.3064801 2.0602901
-4.1282501 -1.30304 2.0759201
-4.1276999 -1.3054301 2.1208501
-4.1293602 -1.30191 2.1375401
-4.1312399 -1.2986701 2.1926301
-4.13346 -1.29416 2.2452199
-4.1357899 -1.29166 2.27021
-4.1612601 -1.24538 2.1159201
-4.2122502 -1.2351201 2.20487
-4.2028599 -1.21849 2.3169401
-4.1083798 -1.31171 1.33971
-4.1043401 -1.30428 1.37675
-4.1550002 -1.29916 1.40741
-4.1118898 -1.3023 1.4587899
-4.1068501 -1.30068 1.44253
-4.1266599 -1.37177 1.3868001
-4.1293302 -1.3755 1.3976099
-4.1294799 -1.36961 1.40483
-4.1247602 -1.36445 1.42433
-4.12538 -1.36799 1.45318
-4.10463 -1.30425 1.39996
-4.1238899 -1.35938 1.47543
-4.1198301 -1.36028 1.49685
-4.15732 -1.30079 1.42535
-4.1251702 -1.3547699 1.5394
-4.1248899 -1.35355 1.58611
-4.1238799 -1.35019 1.6544
-4.1247902 -1.34361 1.66462
-4.17066 -1.28476 1.618
-4.1656199 -1.28246 1.65262
-4.3824301 -0.95698702 1.4113899
-4.3868499 -0.92247498 1.41504
-4.16433 -1.27262 1.76279
-4.1275702 -1.33271 1.77452
-4.1271901 -1.32947 1.80796
-4.1649499 -1.2765501 1.69102
-4.1287198 -1.3294899 1.82033
-4.1669502 -1.27315 1.74821
-4.1079798 -1.26323 1.81462
-4.3702102 -0.92776501 1.44946
-4.38588 -0.90509701 1.42899
-4.3870502 -0.92108297 1.42827
-4.1287498 -1.31969 1.93094
-4.3716798 -0.93593401 1.49508
-4.3763399 -0.94078398 1.50736
-4.3893099 -0.90791798 1.41676
-4.3928199 -0.870915 1.62396
-4.1294498 -1.3116601 2.02721
-4.37286 -0.91355699 1.6015
-4.3715 -0.93170899 1.54009
-4.38624 -0.88568097 1.54404
-4.3717198 -0.91480398 1.58456
-4.4007902 -0.87577999 1.61002
-4.1737599 -1.25957 1.95934
-4.1339302 -1.3009 2.18543
-4.2144198 -1.24809 2.1075699
-4.16432 -1.30273 2.3641601
-4.2049298 -1.2143 2.3272901
-4.37219 -0.92027998 1.51823
-4.3733001 -0.92749798 1.60937
-4.39114 -0.86241603 1.73229
-4.2249298 -1.24528 2.1782501
-4.2138 -1.23157 2.2193899
-4.3831801 -0.86688203 1.67265
-4.3708701 -0.91088903 1.74584
-4.37183 -0.916439 1.74117
-4.3727498 -0.92076498 1.7869999
-4.3757801 -0.89267099 1.80494
-4.3845 -0.86689103 1.7007
-4.3856001 -0.86195302 1.76925
-4.38132 -0.900841 1.97568
-4.3915401 -0.86041999 1.78742
-4.37779 -0.87905699 1.8330801
-4.3801498 -0.906362 1.96863
-4.37673 -0.88512301 1.90012
-4.39114 -0.964912 1.44481
-4.3828902 -0.95399201 1.48699
-4.22087 -1.25447 2.0126901
-4.38451 -0.95114702 1.53364
-4.3782301 -0.94334501 1.57373
-4.38311 -0.91036701 1.52599
-4.3632302 -0.91469902 1.54318
-4.3772702 -0.935682 1.63036
-4.1705298 -1.2552 1.97093
-4.13766 -1.30182 2.19171
-4.3889298 -0.88573498 1.51859
-4.3894 -0.87641799 1.57057
-4.3689499 -0.91505098 1.69234
-4.1807799 -1.2434601 2.2491801
-4.1753602 -1.24198 2.2611599
-4.3661199 -0.896734 1.75497
-4.37395 -0.91799498 1.80243
-4.1456499 -1.30046 2.2700701
-4.3735499 -0.92328298 1.74218
-4.3899202 -0.863208 1.70631
-4.3903198 -0.86259198 1.71495
-4.3906498 -0.86019498 1.74105
-4.3912101 -0.86667699 1.65464
-4.3849201 -0.867109 1.6872
-4.3806801 -0.91651601 1.86193
-4.3892498 -0.85806203 1.78106
-4.3707199 -0.87946397 1.93613
-4.3962898 -0.855582 1.88032
-4.3861198 -0.87711298 1.97662
-4.37959 -0.882842 1.8046401
-4.3891401 -0.85615599 1.79987
-4.3862801 -0.84398198 1.96921
-4.3877902 -0.854087 1.93548
-4.0763001 -1.36128 1.35589
-4.4072399 -0.90979397 1.52477
-4.1049399 -1.2385499 2.0429599
-4.4214101 -0.93715 1.56208
-4.39572 -0.98675299 1.44379
-4.1855302 -1.19788 1.95109
-4.3515301 -0.96387202 1.5087301
-4.3662701 -0.97244197 1.43874
-4.3123899 -0.96506399 1.44095
-4.2793002 -0.94189799 1.44655
