# .PCD v0.7 - Point Cloud Data file format
VERSION 0.7
FIELDS x y z
SIZE 4 4 4
TYPE F F F
COUNT 1 1 1
WIDTH 155
HEIGHT 1
VIEWPOINT 0 0 0 1 0 0 0
POINTS 155
DATA ascii
-1.15377 -0.98053598 -0.56480801
-1.11242 -0.58117998 -0.59783399
-1.07758 -0.673428 -0.58775902
-1.06828 -0.63197899 -0.58114201
-1.0949 -0.88921398 -0.555704
-1.07346 -0.73161602 -0.559268
-1.0958101 -0.897681 -0.54272199
-1.06567 -0.64916998 -0.577645
-1.09875 -0.892389 -0.57131797
-1.07432 -0.65127099 -0.58500803
-1.09675 -0.84792501 -0.55300599
-1.17476 -1.09039 -0.504152
-1.07037 -0.67295003 -0.58106399
-1.0904599 -0.83189499 -0.55483103
-1.08983 -0.88376898 -0.54764301
-1.0798 -0.73117399 -0.56710303
-1.07636 -0.72281301 -0.568546
-1.10106 -0.868756 -0.56068999
-1.09358 -0.89240903 -0.55210698
-1.06862 -0.66101301 -0.56381899
-1.0973901 -0.87560999 -0.550726
-1.08314 -0.76244301 -0.55141598
-1.0822999 -0.80226201 -0.55328602
-1.10778 -0.94802201 -0.52752501
-1.09764 -0.867643 -0.55118001
-1.17219 -1.09034 -0.50137597
-1.1081001 -0.9332 -0.53773099
-1.07657 -0.711833 -0.57313699
-1.07437 -0.70434898 -0.60422701
-1.11366 -0.99913597 -0.532758
-1.10211 -0.89052898 -0.55560398
-1.06811 -0.65578502 -0.58546901
-1.09455 -0.84471297 -0.572016
-1.12762 -0.61005598 -0.588094
-1.06414 -0.64182198 -0.59414601
-1.10349 -0.91336799 -0.56138802
-1.12124 -1.02112 -0.54874098
-1.05916 -0.62163103 -0.598171
-1.0903 -0.836833 -0.567819
-1.16615 -1.09723 -0.49401399
-1.1497 -0.87635702 -0.56350303
-1.07644 -0.73796701 -0.58381701
-1.1352299 -0.67918402 -0.57545602
-1.06301 -0.64230502 -0.59605199
-1.09759 -0.58665901 -0.60205001
-1.09161 -0.83885998 -0.56827098
-1.12606 -0.611498 -0.58755797
-1.06479 -0.635113 -0.58737499
-1.06681 -0.65735102 -0.58611703
-1.0932 -0.87146401 -0.561836
-1.1286401 -0.67439002 -0.57791501
-1.09105 -0.82963902 -0.57150197
-1.0699 -0.68392801 -0.58612603
-1.12801 -0.650374 -0.581411
-1.05896 -0.620664 -0.59287
-1.0538 -0.61491102 -0.59366798
-1.1352 -0.67391503 -0.56928802
-1.08877 -0.89661002 -0.58644998
-1.07349 -0.73080403 -0.58133799
-1.13153 -0.67089301 -0.57813001
-1.0671901 -0.64730501 -0.58485699
-1.08643 -0.58534199 -0.58619702
-1.15144 -0.88150102 -0.55153602
-1.14494 -0.80835402 -0.56026202
-1.15284 -0.75291097 -0.53192002
-1.12639 -0.649409 -0.58339202
-1.08717 -0.81570798 -0.56952602
-1.09482 -0.81332701 -0.56455898
-1.07379 -0.67874801 -0.58329499
-1.14687 -0.80520499 -0.56105298
-1.07391 -0.61895102 -0.58374298
-1.13436 -0.66351998 -0.56659001
-1.1266299 -0.61974698 -0.57896101
-1.06419 -0.61530101 -0.59082901
-1.14878 -0.84287298 -0.55938399
-1.10261 -0.75502098 -0.61863703
-1.15686 -0.77454102 -0.54793102
-1.14788 -0.80879498 -0.56700099
-1.14967 -0.88098001 -0.55708098
-1.1439101 -0.816998 -0.56855899
-1.12868 -0.66350198 -0.57871097
-1.14315 -0.83564401 -0.56648499
-1.1466399 -1.0958101 -0.502581
-1.15509 -0.97389197 -0.53935498
-1.15183 -0.88959903 -0.54900402
-1.16052 -1.10721 -0.493808
-1.12391 -0.85978299 -0.53859699
-1.15878 -0.95765901 -0.53957701
-1.04805 -0.61808199 -0.59761399
-1.11883 -0.64826399 -0.57936102
-1.12108 -0.68012798 -0.58295703
-1.1468199 -1.01639 -0.54204798
-1.124 -0.73418099 -0.57726002
-1.09698 -0.62155998 -0.51342702
-1.13243 -0.83990598 -0.56662899
-1.1540101 -0.99180299 -0.547068
-1.09014 -0.91008401 -0.56745398
-1.08836 -0.87911099 -0.56432003
-1.13835 -0.85675299 -0.57271302
-1.11561 -0.62605 -0.592439
-1.19107 -1.0293601 -0.61795503
-1.13021 -0.60002798 -0.60084599
-1.08978 -0.81045401 -0.57198602
-1.07788 -0.72577 -0.57544899
-1.10874 -0.965868 -0.55504799
-1.09952 -0.89220601 -0.56222802
-1.07056 -0.65265298 -0.58932602
-1.07673 -0.728912 -0.58952099
-1.1445301 -0.76131803 -0.54933101
-1.07442 -0.70838499 -0.59679598
-1.09849 -0.86143303 -0.57770699
-1.15804 -0.87374198 -0.54285997
-1.06683 -0.63685399 -0.58870697
-1.09042 -0.79920602 -0.57086402
-1.14818 -1.09806 -0.50118202
-1.0834301 -0.93565798 -0.58338398
-1.13767 -0.83666199 -0.56551498
-1.1194201 -0.70636398 -0.580028
-1.06207 -0.72095698 -0.595267
-1.1131999 -0.64106101 -0.59327
-1.171 -1.09101 -0.49980301
-1.09268 -0.95996898 -0.568744
-1.1395 -0.89593703 -0.55819899
-1.1380399 -0.83920801 -0.555758
-1.11397 -0.66804498 -0.58082002
-1.04811 -0.613837 -0.60478902
-1.16566 -1.11199 -0.49821299
-1.17068 -1.09106 -0.49951601
-1.08966 -0.92619002 -0.570144
-1.13999 -0.87352097 -0.568268
-1.1310199 -0.79252398 -0.57582998
-1.06196 -0.67841202 -0.59231502
-1.15605 -0.99000299 -0.56432098
-1.11184 -0.64482403 -0.58863801
-1.1265399 -0.741961 -0.583983
-1.06789 -0.703731 -0.58483398
-1.05932 -0.62654698 -0.597938
-1.1219 -0.700257 -0.59352303
-1.06494 -0.71494699 -0.59017801
-1.1129301 -0.6214 -0.59544897
-1.0899301 -0.90168798 -0.56458998
-1.0930001 -0.93800801 -0.55831599
-1.14123 -0.93702102 -0.57084101
-1.13911 -0.80080098 -0.58200002
-1.12711 -0.79499602 -0.58270401
-1.12762 -0.73566997 -0.58763897
-1.12169 -0.70865101 -0.59263599
-1.05305 -0.640122 -0.60083401
-1.06401 -0.69657701 -0.59259403
-1.09044 -0.934282 -0.567469
-1.12019 -0.70816499 -0.59364802
-1.08979 -0.89655799 -0.57044399
-1.07095 -0.69967097 -0.592116
-1.14526 -0.847772 -0.57259101
-1.06564 -0.70144701 -0.58919197
