# .PCD v0.7 - Point Cloud Data file format
VERSION 0.7
FIELDS x y z
SIZE 4 4 4
TYPE F F F
COUNT 1 1 1
WIDTH 109
HEIGHT 1
VIEWPOINT 0 0 0 1 0 0 0
POINTS 109
DATA ascii
0.34825999 -0.57109201 -0.60977399
0.33219901 -0.76575899 -0.59408498
0.35769501 -0.56556797 -0.62556499
0.37434801 -0.38994899 -0.62554997
0.36942101 -0.371223 -0.62563503
0.378297 -0.33949599 -0.62338001
0.369048 -0.41939199 -0.61897701
0.378939 -0.36747301 -0.63769698
0.37452 -0.39221701 -0.63016599
0.34089699 -0.794842 -0.62991202
0.350016 -0.614012 -0.61962402
0.40656 -0.202517 -0.65924197
0.34586501 -0.75133502 -0.61372101
0.37994799 -0.33443901 -0.63380802
0.40214401 -0.196454 -0.64776802
0.38551599 -0.342751 -0.638506
0.36378199 -0.693757 -0.63217199
0.42208499 -0.22845601 -0.66804099
0.34819299 -0.74167597 -0.60848302
0.39052001 -0.33853701 -0.63831198
0.39420599 -0.31039 -0.64309698
0.409417 -0.24830499 -0.66463202
0.369216 -0.493442 -0.61947101
0.39081499 -0.31169999 -0.64255399
0.42999199 -0.48095 -0.602337
0.40377501 -0.208838 -0.65527302
0.34195799 -0.73635501 -0.60666698
0.32861599 -0.79577202 -0.59301502
0.36561701 -0.43549001 -0.630301
0.33827499 -0.74849302 -0.60434997
0.40183899 -0.21576899 -0.65429199
0.37324399 -0.421103 -0.62502402
0.379962 -0.36132199 -0.63824803
0.369764 -0.414361 -0.62718397
0.42684901 -0.504363 -0.59587401
0.42841101 -0.471064 -0.59292698
0.346425 -0.74990898 -0.6081
0.350761 -0.72153801 -0.60832697
0.41039899 -0.230672 -0.66048098
0.40006301 -0.294314 -0.64380503
0.47568601 -0.55176401 -0.70824403
0.52144802 -0.59079999 -0.68619901
0.465976 -0.64311898 -0.64323199
0.49598801 -0.410557 -0.67315203
0.51770401 -0.36844701 -0.68437201
0.432933 -0.191596 -0.674541
0.34907699 -0.773794 -0.61148101
0.41733399 -0.242184 -0.66242301
0.33886501 -0.75874501 -0.60694098
0.358376 -0.57357198 -0.61824
0.371618 -0.437612 -0.63296503
0.37758699 -0.372345 -0.63987899
0.41184601 -0.199218 -0.67996198
0.391265 -0.31573001 -0.653916
0.36962301 -0.48095101 -0.62801701
0.48836201 -0.565593 -0.66682202
0.516307 -0.42306 -0.68374997
0.485607 -0.59211898 -0.66819501
0.49139899 -0.56721002 -0.66794503
0.48063299 -0.60534 -0.655487
0.47434899 -0.66522199 -0.67933297
0.49586701 -0.54874402 -0.67231101
0.519611 -0.378701 -0.672966
0.42403099 -0.234972 -0.65725702
0.48846099 -0.37935999 -0.67543602
0.46180701 -0.57813799 -0.64462602
0.48405999 -0.443593 -0.670847
0.449615 -0.65979302 -0.63282901
0.463274 -0.555857 -0.64555699
0.48977101 -0.37605301 -0.68212599
0.51567298 -0.46158001 -0.73144501
0.533081 -0.308559 -0.70858502
0.438512 -0.67163402 -0.62029499
0.455984 -0.58479702 -0.63198501
0.47803199 -0.39603001 -0.66413403
0.41998801 -0.224287 -0.65723097
0.47088501 -0.43417901 -0.65133899
0.44680101 -0.58542699 -0.62636799
0.45850801 -0.51439703 -0.63970798
0.45183599 -0.52135497 -0.62975299
0.44354001 -0.59702802 -0.61969298
0.47327301 -0.393758 -0.64967
0.45621699 -0.507191 -0.63385201
0.43752101 -0.63987797 -0.60936201
0.46450001 -0.43759301 -0.636406
0.470658 -0.425338 -0.64587402
0.44547299 -0.5765 -0.61219001
0.484045 -0.32506701 -0.65142798
0.48827001 -0.339369 -0.64760602
0.445838 -0.54552799 -0.61726099
0.47167099 -0.36371201 -0.64568597
0.45685899 -0.46143499 -0.62853402
0.44054499 -0.59073699 -0.612477
0.45137501 -0.50853801 -0.61361599
0.395899 -0.220952 -0.66615498
0.46273801 -0.51397997 -0.63734198
0.46833 -0.474612 -0.63600898
0.406609 -0.249559 -0.66353202
0.41859201 -0.19791099 -0.66642499
0.44821 -0.573192 -0.63284898
0.43858099 -0.61632103 -0.61411899
0.42857501 -0.19429401 -0.66951603
0.43062499 -0.63036001 -0.60139602
0.45632699 -0.46389601 -0.62404698
0.45139 -0.49525601 -0.62605602
0.439365 -0.57045001 -0.61863101
0.433166 -0.67210603 -0.59830803
0.433189 -0.64643902 -0.60483599
0.47641101 -0.361929 -0.64947402
