# .PCD v0.7 - Point Cloud Data file format
VERSION 0.7
FIELDS x y z
SIZE 4 4 4
TYPE F F F
COUNT 1 1 1
WIDTH 657
HEIGHT 1
VIEWPOINT 0 0 0 1 0 0 0
POINTS 657
DATA ascii
4.3537402 -0.69228798 5.2365699
4.35466 -0.62227499 5.2189598
4.3740902 -0.49357501 5.2124901
4.3870702 -0.39808899 5.20643
4.3888698 -0.39262599 5.2070098
4.4019399 -0.29714 5.2010298
4.4123702 -0.24111301 5.1999502
4.4142098 -0.224226 5.1984701
4.3483801 -0.70454401 5.2448401
4.3583899 -0.62716103 5.2414098
4.3623099 -0.61205202 5.2480302
4.3673601 -0.57085598 5.2406301
4.37988 -0.472617 5.2360802
4.38095 -0.46752799 5.23627
4.3888001 -0.40042299 5.22717
4.3947001 -0.35389 5.2249799
4.4010301 -0.30241799 5.2170801
4.40587 -0.25586 5.21382
4.40975 -0.188794 5.2060099
4.4109101 -0.178756 5.20017
4.3489299 -0.77195603 5.2870598
4.3465099 -0.74620098 5.2382798
4.3473501 -0.73083103 5.2361698
4.3474302 -0.71433401 5.2534399
4.3600302 -0.62118697 5.2281199
4.36269 -0.59113199 5.22505
4.3674698 -0.55149603 5.2223401
4.3696799 -0.53607202 5.2369399
4.3744202 -0.50246799 5.2150202
4.3785901 -0.48281801 5.2206702
4.3790698 -0.47208101 5.2343602
4.3818798 -0.45236799 5.23348
4.3811202 -0.443073 5.2104802
4.3847599 -0.41850001 5.2095199
4.3892398 -0.383293 5.22262
4.3919702 -0.358614 5.2206802
4.3953099 -0.35467699 5.20819
4.39818 -0.31434801 5.2185798
4.39956 -0.31516799 5.2049499
4.39992 -0.30030701 5.2024298
4.40769 -0.250413 5.2161298
4.40557 -0.246455 5.1928
4.4092999 -0.206972 5.1940999
4.4116902 -0.182252 5.1968398
4.4126801 -0.172221 5.2009902
4.4169698 -0.123727 5.1909699
4.4182501 -0.104326 5.18853
4.4237599 -0.065010197 5.1917
4.3463802 -0.77299398 5.2877302
4.3405399 -0.76550198 5.2531099
4.3455 -0.73618799 5.25699
4.3473501 -0.72664499 5.2516098
4.3487501 -0.71160001 5.24963
4.3673601 -0.56914699 5.2421699
4.3730001 -0.52026498 5.2369699
4.3766599 -0.486305 5.22791
4.3807998 -0.471892 5.2395101
4.3817701 -0.44764799 5.2245402
4.3857398 -0.41349599 5.2312398
4.3867202 -0.409087 5.2210102
4.3893099 -0.384628 5.2284398
4.3480501 -0.71640497 5.2551899
4.39364 -0.36076 5.2276802
4.3938298 -0.35630199 5.2165599
4.3987899 -0.313223 5.2119899
4.4004898 -0.30330601 5.2218099
4.3687901 -0.54416698 5.2430501
4.40523 -0.256302 5.2006998
4.40628 -0.25113899 5.2108798
4.3720698 -0.53022099 5.2330999
4.4113402 -0.199558 5.1942301
4.4120302 -0.18481199 5.2067699
4.4254899 -0.054247499 5.1910501
4.3477898 -0.736691 5.2407198
4.3475399 -0.72604001 5.2591701
4.3584299 -0.64295602 5.2389698
4.3638 -0.60430199 5.2296
4.3669 -0.58513403 5.2281299
4.3678298 -0.56507802 5.2398801
4.3706999 -0.54083902 5.2420902
4.3738198 -0.53204697 5.2274299
4.3744001 -0.51204997 5.2387099
4.3757801 -0.51285797 5.2192798
4.3829799 -0.460316 5.2190099
4.3849101 -0.441221 5.2161798
4.38621 -0.426301 5.23491
4.3882699 -0.40796301 5.2112298
4.3885999 -0.38818499 5.2274199
4.3892899 -0.37872201 5.2256699
4.4033599 -0.271236 5.2185798
4.4257798 -0.061616499 5.1935501
4.3454199 -0.77212399 5.2812901
4.3468099 -0.75082898 5.24296
4.3462901 -0.735416 5.2602401
4.3512802 -0.711236 5.23701
4.3545198 -0.69209701 5.2410498
4.3580599 -0.66789699 5.23842
4.3615799 -0.63364297 5.23282
4.3655601 -0.59982401 5.2279301
4.3677702 -0.560848 5.2469001
4.3803802 -0.476055 5.2432299
4.3882999 -0.410593 5.2337999
4.39012 -0.377965 5.2263899
4.39116 -0.36875799 5.2249699
4.3987198 -0.34131199 5.23733
4.39785 -0.31364599 5.22788
4.3962798 -0.313719 5.22048
4.3980398 -0.304672 5.2200198
4.4040499 -0.26386601 5.22089
4.4033198 -0.26403901 5.2146201
4.4061499 -0.241603 5.2115302
4.4117198 -0.179291 5.2053199
4.41256 -0.175073 5.19981
4.41469 -0.14451 5.1933799
4.3449898 -0.766886 5.24828
4.3501701 -0.728028 5.2434201
4.3478799 -0.722296 5.2561302
4.3542299 -0.69914597 5.2400799
4.3666201 -0.59361798 5.2304201
4.37147 -0.55099499 5.2239599
4.3726702 -0.53676099 5.2212601
4.37362 -0.51765901 5.2396302
4.3775401 -0.480178 5.23913
4.3851199 -0.42955801 5.2337699
4.38941 -0.38806599 5.23247
4.39046 -0.37893099 5.23105
4.3952999 -0.32895899 5.2221498
4.3981299 -0.31550801 5.2218299
4.4005098 -0.27494401 5.2181101
4.40522 -0.226234 5.2093701
4.40663 -0.19972999 5.2086101
4.4100199 -0.191071 5.2049999
4.40804 -0.165152 5.1997199
4.4086399 -0.160813 5.1991901
4.4137101 -0.151978 5.1978598
4.4162998 -0.12611701 5.1933398
4.4193802 -0.100334 5.1895299
4.4242401 -0.056965999 5.1936498
4.4270601 -0.031580701 5.18957
4.34484 -0.76411802 5.2499099
4.3488302 -0.74104202 5.2485299
4.35392 -0.70353502 5.2442899
4.3582902 -0.66095901 5.2374501
4.3599701 -0.64204699 5.2340398
4.3593302 -0.61288899 5.2481399
4.3639398 -0.614398 5.2312198
4.3734398 -0.52167898 5.2402201
4.3730202 -0.49793699 5.2381501
4.37744 -0.47091299 5.2361498
4.38063 -0.47221401 5.2054601
4.3814301 -0.44848999 5.2349501
4.3857799 -0.40302101 5.2329998
4.3887 -0.36702099 5.2259498
4.3453202 -0.73982698 5.2613101
4.3913698 -0.353733 5.2256899
4.3940201 -0.327014 5.2211699
4.3998599 -0.26056001 5.2146802
4.4010501 -0.242744 5.21667
4.40135 -0.230101 5.2072201
4.4022398 -0.20387 5.2060699
4.40272 -0.204226 5.2010498
4.40486 -0.174244 5.1947198
4.4046001 -0.16961899 5.1986699
4.4211202 -0.079484001 5.1887898
4.4180698 -0.050973501 5.1809602
4.3443298 -0.72110897 5.2578001
4.37326 -0.53201699 5.2332802
4.3755298 -0.50915998 5.2356901
4.3721299 -0.489795 5.2367101
4.3782101 -0.486431 5.2322602
4.3825202 -0.46414399 5.22509
4.37886 -0.445066 5.2322302
4.3808098 -0.431701 5.2307901
4.3912301 -0.39262399 5.2147999
4.3938799 -0.365906 5.2164102
4.3873301 -0.35613 5.2218499
4.3965402 -0.34391499 5.2131901
4.3931198 -0.32999399 5.2222099
4.4000301 -0.31332001 5.2083998
4.3979001 -0.30386099 5.2209501
4.4008298 -0.25615901 5.2156501
4.4146299 -0.056565799 5.1876798
4.4154301 -0.056947 5.18293
4.3397598 -0.73685002 5.2528601
4.3410001 -0.727938 5.25912
4.34688 -0.70983499 5.2550702
4.3660202 -0.57310599 5.2375302
4.3750801 -0.51343 5.23106
4.3736501 -0.48056 5.2382302
4.38518 -0.43629599 5.2199798
4.3872199 -0.41834101 5.2168698
4.38591 -0.38624501 5.23142
4.3893099 -0.35971701 5.2273698
4.3916001 -0.33751199 5.2301698
4.4060402 -0.217026 5.2099299
4.3816199 -0.46333399 5.2238302
4.3385801 -0.716142 5.2556601
4.3657899 -0.56727397 5.2371502
4.3691702 -0.54341501 5.2337499
4.3661499 -0.51873702 5.2445798
4.3794899 -0.47285599 5.2243299
4.3745599 -0.46247801 5.2372398
4.3825302 -0.44473699 5.2096601
4.3913498 -0.347161 5.2392001
4.39538 -0.322153 5.1922798
4.39428 -0.31546199 5.2313499
4.3959398 -0.28712499 5.1787701
4.37111 -0.48096299 5.2382798
4.38451 -0.38843101 5.2343102
4.3814902 -0.41615599 5.2402
4.3431201 -0.73695302 5.2551398
4.3627 -0.55071002 5.2434502
4.3791699 -0.46140799 5.20892
4.3805199 -0.40979999 5.1891298
4.3862 -0.358181 5.2361398
4.3824501 -0.40015399 5.2373199
4.3484802 -0.702479 5.2511001
4.3785801 -0.40663901 5.2418699
4.36936 -0.46099499 5.2402802
4.3804302 -0.39295501 5.2409902
4.3884802 -0.31980801 5.2436099
4.3643899 -0.53090298 5.2445798
4.3400502 -0.71856803 5.2593098
4.3364401 -0.74180299 5.2595401
4.3875999 -0.28209499 5.1254902
4.36268 -0.51667798 5.2439399
4.3590498 -0.54978698 5.2460499
4.3889999 -0.326478 5.23453
4.4089599 -0.171848 5.16152
4.3383999 -0.742724 5.2599301
4.3459401 -0.731677 5.2353501
4.3641701 -0.50062799 5.2438202
4.34972 -0.68887401 5.2351198
4.3783498 -0.38983899 5.2421398
4.3351698 -0.73905599 5.2602401
4.38696 -0.32382399 5.2360501
4.38592 -0.452728 5.2373199
4.39328 -0.381349 5.2272902
4.3951702 -0.364858 5.22644
4.3836799 -0.46916601 5.2378201
4.3778 -0.473838 5.2274399
4.3613901 -0.59910899 5.2374902
4.3638 -0.58900797 5.2270899
4.3830099 -0.43561801 5.2262602
4.3446999 -0.718027 5.25178
4.37183 -0.51158297 5.2333698
4.3733001 -0.50655901 5.2284198
4.3591299 -0.62729698 5.2287898
4.3524799 -0.68770999 5.2321701
4.3530798 -0.682212 5.2318501
4.41085 -0.167725 5.1986699
4.3999701 -0.190722 5.15307
4.3628502 -0.47567099 5.23838
4.3564501 -0.61387199 5.2230301
4.35674 -0.60432398 5.2220001
4.3651299 -0.53966397 5.2221298
4.3649502 -0.498763 5.2321401
4.3690701 -0.438032 5.2353301
4.3963399 -0.19635101 5.2130098
4.4087501 -0.039708301 5.2086802
4.3596001 -0.48350701 5.23597
4.3440599 -0.71494198 5.2324901
4.3496099 -0.65721297 5.2364001
4.3813801 -0.42200801 5.23248
4.3894701 -0.35779199 5.2298999
4.3719702 -0.48616201 5.2311301
4.36692 -0.47156501 5.2376299
4.3387799 -0.71833599 5.2568202
4.3528399 -0.645576 5.2403302
4.34094 -0.74607903 5.2466202
4.3478098 -0.69388503 5.2453899
4.3618102 -0.56498402 5.2336302
4.34197 -0.72557098 5.2218299
4.34481 -0.69800901 5.22927
4.37257 -0.39322999 5.22996
4.4135799 -0.105302 5.1709099
4.35818 -0.57621902 5.22646
4.4068499 -0.174455 5.1599302
4.3620901 -0.44791099 5.2219501
4.4109602 -0.124221 5.1718998
4.3376498 -0.731628 5.2342401
4.34306 -0.70811599 5.22861
4.3538799 -0.61396497 5.22616
4.4096799 -0.141792 5.1701899
4.3501801 -0.64099997 5.2158799
4.3435202 -0.61911899 5.23422
4.3935099 -0.266664 5.16294
4.3513498 -0.611754 5.2224302
4.3552599 -0.51306498 5.22684
4.3642602 -0.43769601 5.2112298
4.4036899 -0.105186 5.1714501
4.40836 -0.063824102 5.1909199
4.3410301 -0.69558001 5.21416
4.3524599 -0.60103703 5.2213101
4.3552499 -0.57791001 5.2207499
4.3544302 -0.56059903 5.2198801
4.3594999 -0.51829797 5.2149801
4.3653598 -0.469419 5.2093501
4.3717399 -0.41620299 5.19835
4.3748999 -0.33910501 5.2098398
4.3791499 -0.303413 5.20643
4.3826499 -0.273949 5.2035699
4.38658 -0.24068999 5.2051702
4.38939 -0.21679699 5.2094698
4.3917999 -0.196678 5.2054801
4.4061499 -0.129264 5.1760702
4.4094 -0.102171 5.1739402
4.4145002 -0.0595841 5.1626501
4.34094 -0.69661897 5.22334
4.3494902 -0.625341 5.2094698
4.4166098 -0.042025901 5.16289
4.3660202 -0.48802501 5.1989002
4.3679399 -0.44789901 5.20716
4.34758 -0.64131498 5.2154398
4.3516898 -0.62281102 5.2084498
4.3538198 -0.604895 5.20153
4.3562498 -0.58478898 5.1954899
4.3533902 -0.52183998 5.223
4.3649802 -0.403981 5.2224698
4.4159598 0.0133353 5.1730099
4.3578801 -0.57199597 5.19593
4.37182 -0.46174899 5.1950598
4.3679199 -0.49364701 5.2021699
4.3550701 -0.56575602 5.2107601
4.3583102 -0.54135901 5.2052498
4.3600898 -0.52966601 5.20854
4.35323 -0.52283603 5.2185202
4.3643098 -0.48018199 5.20717
4.3659902 -0.390416 5.22332
4.3675399 -0.37827 5.2179599
4.3929701 -0.189449 5.1965199
4.3898301 -0.21378 5.2058001
4.34972 -0.60533899 5.2174201
4.3508301 -0.59627903 5.2129102
4.3540001 -0.57348901 5.2114701
4.3721299 -0.42176101 5.19554
4.3494902 -0.61114699 5.2130198
4.3442702 -0.60284102 5.2380199
4.3526702 -0.58503699 5.2059999
4.3536501 -0.578583 5.2076001
4.34724 -0.57965499 5.2348099
4.3570499 -0.53761202 5.2136102
4.35219 -0.51783597 5.2199202
4.3600402 -0.51448399 5.2105198
4.3637099 -0.485838 5.2062101
4.3657298 -0.47020701 5.2042398
4.36975 -0.438178 5.1978798
4.37361 -0.409536 5.1968899
4.3752699 -0.39579299 5.1929898
4.3776598 -0.37682599 5.1893702
4.3562398 -0.55876797 5.2052798
4.3593602 -0.51945901 5.2106099
4.3670602 -0.50024199 5.2429199
4.3901601 -0.36462301 5.2251701
4.4068899 -0.216888 5.1990299
4.3843598 -0.40039599 5.22825
4.3894901 -0.33742401 5.22928
4.3368001 -0.73249698 5.2519398
4.3874998 -0.35518101 5.2325001
4.3786402 -0.41801801 5.23248
4.3751202 -0.435967 5.2329102
4.3378 -0.72780102 5.2519698
4.4133701 -0.13133 5.1703901
4.3675599 -0.46718201 5.2309899
4.3657699 -0.494867 5.23035
4.3533401 -0.55984801 5.2079101
4.35604 -0.53885502 5.2091899
4.3530302 -0.538194 5.2240701
4.3587298 -0.52972901 5.20262
4.3599801 -0.50554198 5.2080798
4.3608398 -0.49905699 5.2086902
4.3512301 -0.49460301 5.22756
4.3602901 -0.46615201 5.2113099
4.3645301 -0.46354899 5.2032299
4.3631802 -0.44320601 5.2125401
4.3671598 -0.440027 5.2011299
4.3686299 -0.42854801 5.2017102
4.3586001 -0.43343601 5.2294598
4.3706899 -0.40917701 5.1991501
4.36725 -0.41008499 5.21345
4.3744402 -0.38795 5.18819
4.37535 -0.38092801 5.1886401
4.37679 -0.366061 5.18536
4.4026799 -0.141873 5.1714902
4.4056702 -0.12941401 5.1621299
4.4071898 -0.113373 5.15832
4.4094801 -0.085557498 5.1704998
4.4100699 -0.0570153 5.1921601
4.4127798 -0.0658461 5.15592
4.4120698 -0.0391711 5.1907501
4.3497801 -0.55264598 5.2323999
4.3621898 -0.484442 5.2049999
4.3495998 -0.51171899 5.23069
4.3505101 -0.55357701 5.2281499
4.3566198 -0.54211402 5.20226
4.3447099 -0.54902202 5.2301998
4.3451099 -0.544366 5.2287998
4.3579798 -0.52945 5.2000699
4.3527002 -0.53735101 5.2284698
4.3538399 -0.52925199 5.22891
4.35952 -0.51730698 5.19942
4.36095 -0.50469899 5.1977601
4.3555198 -0.50186902 5.2163501
4.3625998 -0.492596 5.1978002
4.3506598 -0.50005299 5.2276301
4.36375 -0.484566 5.1981502
4.3974299 -0.098134898 5.1923099
4.3590899 -0.48022699 5.2210102
4.3613 -0.45998701 5.21803
4.36762 -0.45269299 5.1954598
4.3562698 -0.44799301 5.2199402
4.35707 -0.441255 5.21944
4.3702998 -0.42579001 5.1896
4.3652201 -0.42910501 5.2170701
4.3710299 -0.419168 5.1886401
4.3603802 -0.417079 5.2208099
4.3670101 -0.415806 5.2172999
4.3680801 -0.40661299 5.2163901
4.37392 -0.394968 5.1862502
4.3694 -0.39223701 5.2126002
4.36414 -0.39012799 5.2227702
4.37077 -0.38066301 5.2116299
4.3658099 -0.37599599 5.2217102
4.37219 -0.369055 5.2108798
4.38129 -0.26690701 5.2315102
4.4029598 -0.15112799 5.1620002
4.3937201 -0.135566 5.20011
4.4051299 -0.133297 5.1605301
4.3979402 -0.117148 5.19526
4.4033499 -0.075296797 5.1951098
4.4056001 -0.042539801 5.1992998
4.4124699 -0.041921102 5.1922998
4.408 -0.0058520399 5.1830802
4.4089298 0.0026551001 5.1819201
4.4148798 -0.00088669598 5.17274
4.4106698 -0.082176402 5.1521301
4.4066701 -0.115837 5.1555099
4.39849 -0.111784 5.1943102
4.3585801 -0.48635501 5.2202401
4.3615198 -0.45336699 5.21838
4.3652301 -0.431541 5.2150602
4.3617201 -0.42997199 5.2300501
4.3726001 -0.40203899 5.1845899
4.36938 -0.402908 5.2104101
4.3725801 -0.35370699 5.2237902
4.3792701 -0.332802 5.1814799
4.38096 -0.315476 5.1807799
4.3987799 -0.15985399 5.1869898
4.3943801 -0.197467 5.1645002
4.39533 -0.19038901 5.1653299
4.3982401 -0.16721401 5.1881199
4.3935099 -0.158206 5.2059698
4.4018002 -0.147421 5.1635299
4.3941398 -0.13590901 5.1978002
4.3945498 -0.128374 5.1960001
4.40167 -0.12739199 5.1844301
4.4036598 -0.106977 5.1835999
4.40449 -0.0563231 5.1966
4.4123502 -0.046164699 5.1940899
4.4062901 -0.0372154 5.1957402
4.4131498 -0.035804398 5.1814299
4.4094501 -0.0047002202 5.1828098
4.40834 -0.023075299 5.1867199
4.3741298 -0.38782799 5.1847301
4.3699398 -0.38291401 5.2252798
4.3758702 -0.36669901 5.1824002
4.4154401 0.0125487 5.16822
4.3958201 -0.110528 5.1932602
4.40941 -0.0023249499 5.1814399
4.4106798 -0.040780999 5.2036901
4.3671699 -0.495924 5.2076302
4.3595099 -0.56016701 5.2136002
4.3625498 -0.52909797 5.2181802
4.3689299 -0.463952 5.2058802
4.35811 -0.498348 5.2321
4.3773799 -0.33691001 5.20504
4.3781099 -0.33202499 5.2052302
4.3810301 -0.31460699 5.2025299
4.3990798 -0.0967834 5.1931
4.3761201 -0.32027999 5.2225299
4.38168 -0.30416399 5.2006402
4.3855801 -0.271285 5.1993399
4.38692 -0.26251701 5.1790099
4.3871298 -0.26074901 5.1996799
4.38831 -0.255806 5.18014
4.4124298 -0.0476861 5.17734
4.3877902 -0.231971 5.21415
4.3909001 -0.22950301 5.1942801
4.3910699 -0.22766601 5.1773
4.39187 -0.222609 5.19872
4.3892798 -0.218646 5.2135501
4.3942199 -0.19982401 5.1925201
4.39148 -0.187529 5.2087898
4.3966699 -0.161522 5.20399
4.39675 -0.15163399 5.20083
4.4017801 -0.140091 5.1823502
4.39609 -0.127738 5.1958199
4.4028001 -0.12830301 5.1808701
4.40344 -0.122339 5.1804299
4.4005399 -0.117336 5.1942601
4.39749 -0.10938 5.1932402
4.4063501 -0.096090898 5.17872
4.4079299 -0.083676197 5.1784301
4.4031801 -0.079604998 5.1930599
4.40587 -0.064070597 5.1947398
4.4110799 -0.058406401 5.17765
4.4082899 -0.036935199 5.1967902
4.4095402 -0.035177801 5.1944199
4.4137001 -0.034875002 5.1761398
4.4087801 -0.0085223904 5.1834502
4.4066601 -0.0045211101 5.1816101
4.4155898 0.0029283301 5.1680002
4.3931999 -0.15388399 5.2019
4.39222 -0.171766 5.20539
4.3817301 -0.27686 5.21806
4.3917799 -0.177697 5.2062402
4.3884001 -0.249997 5.1992602
4.3936601 -0.212515 5.21347
4.38941 -0.20699701 5.20995
4.3942399 -0.196796 5.1704898
4.37679 -0.31894401 5.2211199
4.3777299 -0.31284299 5.2207198
4.3794398 -0.302093 5.22013
4.3855 -0.276914 5.1819901
4.3910198 -0.219366 5.2122998
4.3949099 -0.19200601 5.2098498
4.3916998 -0.18530899 5.2072201
4.4012098 -0.139249 5.1831999
4.4123702 -0.047651801 5.17693
4.4100399 -0.038523 5.1927299
4.38305 -0.26920599 5.2181401
4.4094801 -0.0043248101 5.1820002
4.38837 -0.25606099 5.2023201
4.3846002 -0.256134 5.2163301
4.3887401 -0.250011 5.1948299
4.3860602 -0.241188 5.2136302
4.3899298 -0.237739 5.1954298
4.3881998 -0.23943201 5.21419
4.39187 -0.226107 5.1918502
4.3878398 -0.22786801 5.2122102
4.3921599 -0.21831 5.19241
4.3928499 -0.213423 5.1918998
4.3898902 -0.210959 5.20999
4.3934498 -0.201951 5.1741199
4.3952498 -0.193626 5.1890802
4.3959498 -0.185481 5.1904101
4.3957701 -0.181539 5.2076101
4.3972301 -0.171949 5.1877599
4.3964701 -0.169257 5.20432
4.3966298 -0.165739 5.20331
4.3991098 -0.15314899 5.18433
4.39819 -0.130373 5.1929498
4.4021602 -0.13051701 5.1817398
4.3998399 -0.123034 5.1935301
4.4030499 -0.123472 5.18082
4.3941698 -0.116177 5.1925998
4.4075699 -0.091131702 5.1774702
4.40733 -0.093550302 5.1565299
4.4095001 -0.068460099 5.1791101
4.40938 -0.0444046 5.1936002
4.4135699 -0.0381229 5.1756902
4.4143801 -0.030517999 5.1744099
4.3850098 -0.27086699 5.2174001
4.3861899 -0.25390899 5.2150402
4.3899202 -0.232152 5.2129102
4.39186 -0.197938 5.20752
4.3961 -0.189978 5.2069101
4.38656 -0.27118099 5.1958799
4.3864198 -0.267519 5.19631
4.3875299 -0.25930199 5.19488
4.3895602 -0.245519 5.19277
4.3901401 -0.234605 5.1915398
4.39393 -0.206448 5.18888
4.39394 -0.20235901 5.1894898
4.39715 -0.183745 5.1786599
4.3965201 -0.18322501 5.1862302
4.39744 -0.174485 5.1865602
4.3984199 -0.165438 5.1846199
4.3945098 -0.164197 5.1820402
4.4004698 -0.14725 5.1831799
4.40238 -0.131752 5.1802602
4.4024701 -0.12554599 5.1802902
4.39818 -0.114453 5.1930299
4.3984199 -0.104609 5.1921301
4.3980999 -0.096386403 5.1908998
4.4099398 -0.070205502 5.1759
4.41785 0.0203551 5.1637902
4.4095998 -0.039649598 5.1918302
4.4066601 -0.062929697 5.1930299
4.4106398 -0.050331902 5.1924901
4.3324099 -0.741835 5.2647099
4.3989601 -0.28421 5.1967301
4.3346801 -0.74163598 5.2589102
4.4010701 -0.25365901 5.18817
4.3965702 -0.31463301 5.2151699
4.3839898 -0.36278799 5.2392402
4.3920002 -0.34610099 5.21839
4.3610001 -0.51383197 5.2413998
4.3878398 -0.33097601 5.2340398
4.39923 -0.22307099 5.2231798
4.3908801 -0.31291199 5.23315
4.3793201 -0.40886301 5.2379498
4.3754101 -0.42691201 5.2367001
4.36553 -0.53325701 5.2283001
4.3625498 -0.494914 5.2365499
4.3724499 -0.391359 5.2095799
4.3751402 -0.363085 5.2078099
4.3786001 -0.353084 5.1841002
4.37849 -0.34540799 5.2058702
4.3800001 -0.338202 5.18291
4.3804202 -0.33050999 5.1813002
4.3806601 -0.321969 5.2041001
4.3833699 -0.312206 5.1838999
4.3846898 -0.266141 5.2241702
4.3811598 -0.313777 5.1712098
4.38765 -0.26657999 5.1740899
4.3881898 -0.264709 5.1751099
4.3896699 -0.21616501 5.1549602
4.4092202 -0.043156799 5.2003798
4.3847399 -0.300771 5.18397
4.38484 -0.281721 5.1707602
4.3856902 -0.24553899 5.1534901
4.3913398 -0.22006799 5.2150002
4.4001498 -0.109975 5.1951499
4.3907599 -0.24085499 5.1742401
4.3950801 -0.199912 5.1661801
4.3903298 -0.22020499 5.1586699
4.3965502 -0.124048 5.1954899
4.39574 -0.135454 5.1971202
4.3995299 -0.174606 5.1707401
4.4011302 -0.159638 5.1701298
4.4117899 -0.0580911 5.17873
4.4131298 -0.046044599 5.1784701
4.4138098 -0.041088302 5.1787701
4.39641 -0.189537 5.16646
4.4092999 -0.079530299 5.1788602
4.40869 -0.036149502 5.1883302
4.4093399 -0.0220087 5.1849999
4.4056902 -0.059464999 5.1945601
4.4110899 0.0068786098 5.1796999
4.3474598 -0.60524702 5.2346501
4.3439202 -0.59733301 5.2421098
4.3487802 -0.55615002 5.23876
4.3587899 -0.44755 5.2273598
4.34413 -0.57263303 5.2379799
4.3607202 -0.48859501 5.2160602
4.4170899 0.0108964 5.1703
4.39639 -0.125351 5.19765
4.4114499 0.00561208 5.1820002
4.4121099 0.0116844 5.1807098
4.33286 -0.72845799 5.24962
4.3681102 -0.53316802 5.2627401
4.4156699 -0.084651403 5.16395
4.4137301 -0.10363 5.1507401
4.41049 -0.0775114 5.1928201
4.4137402 -0.0465221 5.1947799
4.4138999 0.000124792 5.18189
