# .PCD v0.7 - Point Cloud Data file format
VERSION 0.7
FIELDS x y z
SIZE 4 4 4
TYPE F F F
COUNT 1 1 1
WIDTH 574
HEIGHT 1
VIEWPOINT 0 0 0 1 0 0 0
POINTS 574
DATA ascii
1.92097 -0.096795201 5.7253799
1.81915 -0.095160998 5.7825398
1.90316 -0.093373299 5.79812
1.91492 -0.088744901 5.8261099
1.88659 0.021968201 5.6749601
1.91564 0.033445802 5.7765999
1.86252 0.033305101 5.6956801
1.91239 0.043092199 5.7785101
1.9104 -0.10208 5.6694002
1.91545 -0.097780898 5.6314402
1.90056 -0.0928289 5.7891898
1.87075 -0.0933984 5.8204999
1.92019 -0.084675103 5.65692
1.92888 -0.070244901 5.5327201
1.87432 -0.040357299 5.6774702
1.82675 -0.039764099 5.6925998
1.87804 -0.0109378 5.7956901
1.9154201 0.0127561 5.7227898
1.87965 0.0139364 5.6633902
1.90913 0.0237465 5.6808901
1.92576 0.062766597 5.5399098
1.92748 0.078274399 5.5267301
1.96962 0.089859299 5.5711298
1.9553601 0.143418 5.8797102
1.88967 0.127959 5.5429101
1.95037 0.119641 5.4991698
1.87889 0.049734801 5.6949902
1.89744 0.026628001 5.7118702
1.9140199 0.041445699 5.7790399
1.8305399 0.019796399 5.7916498
1.89001 -0.12503199 5.50669
1.85612 -0.106459 5.6820998
1.8994 -0.0880806 5.8343
1.85514 -0.081073202 5.8036098
1.91719 -0.084390402 5.5506902
1.89358 -0.083557598 5.5051699
1.8954099 -0.063837998 5.4879799
1.88186 -0.0222602 5.8949599
1.88831 -0.0313752 5.6152701
1.85028 -0.017911401 5.7642698
1.92015 -0.00383237 5.4990301
1.90512 0.0278267 5.6465602
1.89442 0.049588598 5.8188801
1.8879 0.057755999 5.5831499
1.9224 0.089646898 5.48491
1.93337 0.071006797 5.5370898
1.89784 0.0664391 5.55193
1.9259501 0.0438767 5.7807002
1.90903 0.025611401 5.7087998
1.89276 -0.098589398 5.6237702
1.8789901 -0.086088799 5.8902302
1.90727 -0.076804802 5.54003
1.90716 0.118312 5.88691
1.90561 0.0132182 5.7750401
1.91074 0.00131042 5.7100401
1.90745 0.00032538999 5.7477598
1.85463 -0.115619 5.5735202
1.85268 -0.114457 5.6041899
1.88274 -0.0532736 5.6284499
1.8938299 -0.040118601 5.6757498
1.93483 0.102947 5.8332701
1.92851 0.069463 5.8191299
1.86647 -0.044240199 5.8896198
1.91298 0.055090301 5.5771599
1.91509 0.034107398 5.7203202
1.8747 -0.122998 5.4943199
1.87058 -0.121232 5.5286999
1.85848 -0.120523 5.5521402
1.8888201 -0.061250702 5.5290599
1.9036601 -0.0172089 5.8306699
1.91002 -0.020109599 5.7546701
1.90637 -0.0139072 5.68049
1.8907599 -0.054528698 5.5538301
1.8929501 0.060343601 5.6937299
1.91487 0.108712 5.47893
1.87973 -0.122389 5.5002098
1.8668801 -0.088727102 5.9138699
1.8739901 -0.103646 5.6017599
1.89259 -0.098462403 5.6677599
1.8761801 -0.082951501 5.6400199
1.89191 -0.062895097 5.8959799
1.89666 -0.0583979 5.5577002
1.89271 -0.047355801 5.67487
1.89336 -0.046774801 5.6329398
1.9116 -0.0044571301 5.7635999
1.91196 0.0206267 5.8064899
1.90593 0.00369346 5.4990802
1.90926 0.082748801 5.4792199
1.91327 0.041228 5.4925699
1.8882101 0.068314597 5.6213198
1.90718 0.083394103 5.5289302
1.89405 0.063278802 5.8881102
1.91287 0.047155101 5.8141298
1.89794 0.0119711 5.7760401
1.89101 -0.084333599 5.5058699
1.865 -0.108519 5.6134501
1.9008501 -0.092778496 5.7975998
1.8840899 -0.077012002 5.8817601
1.8717 -0.071068503 5.7220998
1.8894399 -0.0718453 5.5338202
1.88358 -0.064482801 5.53227
1.91074 -0.050565101 5.6904602
1.90854 -0.026873101 5.72931
1.88318 -0.0135878 5.78971
1.88999 -0.0123025 5.6961899
1.89579 -0.0096903499 5.6769099
1.89334 0.024150301 5.7139902
1.92344 0.043547101 5.8187199
1.89473 0.061328001 5.48034
1.90922 0.068256803 5.5074401
1.93321 0.115415 5.5167098
1.91737 0.127106 5.5485902
1.8692 -0.122136 5.5140901
1.88546 -0.071243398 5.90697
1.90701 -0.0200864 5.8868198
1.90078 -0.015659301 5.7627001
1.89416 -0.00265666 5.7082
1.8971699 0.0202561 5.6775799
1.8868999 0.0470112 5.7975502
1.8983001 0.0293562 5.6068201
1.91114 0.033281799 5.645
1.9135799 0.057961699 5.5485702
1.88336 0.073424898 5.61554
1.91822 0.122041 5.5218701
1.8852299 -0.086015202 5.8875299
1.89144 0.123587 5.4923801
1.891 -0.067263901 5.5474
1.9086 -0.019801401 5.7658801
1.91329 -0.0022570901 5.8175302
1.8901 -0.0017829 5.6242599
1.92152 0.036119901 5.8811402
1.8931201 0.039282199 5.6184902
1.91761 0.079263903 5.87883
1.89601 0.047274999 5.4921298
1.8828 -0.088415101 5.88765
1.87298 -0.106717 5.4930301
1.86544 -0.099256799 5.5019598
1.86938 -0.070718899 5.8919101
1.899 -0.066122703 5.8162098
1.8855 -0.062956303 5.75562
1.89191 -0.068838499 5.5460401
1.88693 -0.060827799 5.55301
1.90092 -0.021087499 5.7066202
1.88609 -0.0163517 5.6753502
1.89413 -0.029217901 5.4987302
1.8911901 0.0048559299 5.7470102
1.89279 -0.0108656 5.49687
1.9008 0.039901 5.78056
1.90274 0.049582999 5.7860899
1.89533 0.049079001 5.6380801
1.89499 0.0302686 5.4950299
1.90521 0.095395803 5.5761199
1.88906 -0.093534201 5.8004398
1.88166 -0.071999699 5.6477098
1.8679301 -0.054195698 5.6279001
1.89476 -0.0077827498 5.7883
1.90962 0.0204673 5.8030801
1.89539 0.0108036 5.6301298
1.88957 0.0263026 5.7121601
1.8931299 0.022084801 5.5946202
1.90759 0.054955199 5.6019602
1.90119 0.040920701 5.4923801
1.8975 0.065813303 5.48034
1.91008 0.075925298 5.53971
1.90177 0.103394 5.4766102
1.87185 -0.123613 5.5111299
1.8722399 -0.073900402 5.9095898
1.87623 -0.086580403 5.61553
1.86172 -0.065745398 5.9018602
1.88794 -0.066346899 5.5337701
1.87937 -0.063183904 5.5300899
1.93422 0.120665 5.5188298
1.8951499 0.097155102 5.8810301
1.87089 -0.093580797 5.83392
1.86225 -0.109685 5.6492801
1.88156 -0.106212 5.6691499
1.89775 -0.093271703 5.7795401
1.87946 -0.080537498 5.9105
1.86994 -0.118163 5.5321798
1.8616 -0.11026 5.6094699
1.87915 -0.100031 5.6240501
1.89713 -0.074995503 5.79707
1.8865 -0.087026402 5.66678
1.87544 -0.104781 5.4945798
1.88292 -0.064707197 5.7529202
1.8800499 -0.077835098 5.6209998
1.87767 -0.074421503 5.64817
1.8708301 -0.084190696 5.5472498
1.87597 -0.069413498 5.60076
1.89791 -0.077105597 5.5135198
1.87887 -0.074921697 5.5337501
1.88578 -0.049428601 5.6862202
1.87685 -0.035505999 5.7283702
1.90175 -0.028283499 5.7730999
1.87773 -0.063892096 5.4881902
1.89663 -0.0035274201 5.77141
1.88728 -0.045316398 5.49371
1.89231 -0.0074105398 5.6743598
1.8936599 -0.00131986 5.7100401
1.89417 0.0467778 5.6238198
1.90265 0.11546 5.8819699
1.8924 0.060831301 5.5795598
1.90798 0.092657998 5.5701299
1.91291 0.095832601 5.5690298
1.8978 0.091304801 5.4874601
1.89965 0.115567 5.5492101
1.91769 0.044763699 5.7813301
1.90839 0.060296301 5.8850098
1.8928699 0.071008101 5.4795299
1.88175 0.070654698 5.5040798
1.88213 -0.0491791 5.7171998
1.8949 -0.00045080399 5.8169899
1.89125 0.0198866 5.8087301
1.8883899 0.0096406797 5.7255802
1.88653 -0.0051362999 5.61941
1.89325 0.042256001 5.8851299
1.88407 0.045530099 5.82798
1.89379 0.0367583 5.6138601
1.90241 0.074961901 5.6092401
1.90832 0.122236 5.5208101
1.8817 -0.078835398 5.8842101
1.88104 -0.0761673 5.9089799
1.9062999 0.073644802 5.54001
1.89149 -0.0112228 5.6754599
1.87648 -0.122851 5.4976602
1.86474 -0.11337 5.6065202
1.89038 -0.103753 5.6687498
1.87921 -0.099461697 5.62462
1.88328 -0.083551899 5.6605301
1.87769 -0.101223 5.5127201
1.87541 -0.084644698 5.55793
1.8836499 -0.038579401 5.8627901
1.88737 -0.059601199 5.6963401
1.9017299 -0.0211436 5.8891602
1.87586 -0.0763468 5.50282
1.89118 -0.047510698 5.6770501
1.88872 -0.0046006702 5.88835
1.88905 -0.0134122 5.7876301
1.88614 -0.052638199 5.5036998
1.89473 -0.0080515696 5.70679
1.90395 0.034095399 5.8863101
1.88148 -0.0107886 5.6135402
1.8976099 0.0090835802 5.6761899
1.89888 0.033504199 5.7767601
1.89922 -0.0162779 5.5009799
1.89235 0.033833802 5.6479998
1.8921 0.066703498 5.7948298
1.89165 0.090100802 5.8793602
1.89283 0.053398799 5.6332998
1.89735 0.065607801 5.5356398
1.89609 0.070422299 5.5532098
1.89924 0.060421798 5.4907298
1.89949 0.0681796 5.5061598
1.89728 0.089252897 5.4796801
1.91257 0.11959 5.5498199
1.90315 0.121936 5.5061202
1.9110399 0.096055798 5.57054
1.90518 0.062313698 5.53929
1.90757 0.060394902 5.6036901
1.89912 0.054301199 5.57722
1.90537 0.10827 5.8832002
1.89853 0.0545968 5.6890202
1.9019099 0.081602298 5.8827901
1.8827 0.0113601 5.6307602
1.90326 0.0169023 5.7151899
1.9043 0.125129 5.5401101
1.8865401 -0.085280798 5.8860898
1.89341 -0.053023599 5.7129302
1.89722 -0.032186501 5.8463702
1.88413 -0.076747999 5.5404501
1.88125 -0.056056999 5.62644
1.88467 -0.0316885 5.7277002
1.88266 -0.053072501 5.55935
1.88087 -0.0356999 5.6177702
1.89013 -0.0196 5.7072802
1.90811 -0.0051960801 5.76441
1.89166 0.035034802 5.7251902
1.9033099 0.051327001 5.8228698
1.88086 -0.082772002 5.91082
1.88782 0.0156272 5.7276702
1.89517 -0.087647997 5.8896499
1.8880399 -0.065452501 5.9034901
1.88546 -0.055943701 5.8567901
1.8918 -0.0287617 5.8927698
1.90741 0.00095802202 5.8158498
1.89127 0.055448301 5.8818002
1.90209 0.0221208 5.8871298
1.90069 0.041042399 5.8862801
1.89355 0.055886801 5.8214898
1.89806 0.064952798 5.8845401
1.88437 -0.087052204 5.8653498
1.87734 -0.093173496 5.6250501
1.88748 -0.0117599 5.6142998
1.88659 -0.0028266599 5.62078
1.8908499 0.067391701 5.5494699
1.90493 0.074843898 5.54107
1.90712 0.0963526 5.57376
1.90543 0.128258 5.54954
1.90196 0.123811 5.5267701
1.91031 0.120672 5.5051398
1.88007 -0.087333597 5.9068599
1.88085 -0.093909398 5.79562
1.88278 -0.059064001 5.8933301
1.89684 -0.101641 5.7001901
1.85835 -0.079471298 5.8030601
1.87055 -0.0592498 5.8652401
1.87869 -0.091507398 5.6673799
1.87367 -0.075438403 5.7164001
1.8848799 -0.064852603 5.7533998
1.88881 -0.024032401 5.8907199
1.89149 -0.045584001 5.67416
1.8926001 -0.0129897 5.7820601
1.874 -0.0014393399 5.8221202
1.87264 -0.0294796 5.7175598
1.8857501 -0.0240991 5.7340899
1.88986 -0.00209449 5.7698002
1.89057 0.00730702 5.7878299
1.8991801 0.00163939 5.7467999
1.90329 0.045191899 5.8817201
1.88504 -0.0157518 5.6825299
1.8952301 -0.0119891 5.6729698
1.88472 2.5195201e-05 5.6985698
1.89937 0.0262393 5.77707
1.90271 0.0284913 5.7727699
1.89905 0.093564503 5.8811102
1.88515 0.052344099 5.7143602
1.9007699 0.115281 5.8843799
1.89979 0.049345098 5.6890502
1.90944 0.087188199 5.7797899
1.88911 0.042956799 5.6175199
1.90652 0.053777698 5.8137298
1.8956 0.0806688 5.8790898
1.90333 0.059276 5.6023502
1.88747 0.0294323 5.7217398
1.88516 0.052347701 5.6317201
1.87676 0.065594502 5.62006
1.89203 -0.0072481502 5.7085299
1.88603 -0.090572298 5.8892999
1.89249 -0.0590344 5.6939502
1.90192 -0.053150699 5.7097001
1.88869 -0.032619402 5.6803999
1.88519 -0.0134679 5.6805801
1.85576 0.0151088 5.6183901
1.88957 0.037044398 5.6430101
1.8888 0.063478 5.6252499
1.89976 0.054412801 5.60358
1.90556 0.060025901 5.6037698
1.8862799 -0.0557313 5.8706899
1.8803 -0.092249602 5.89713
1.87656 -0.087091401 5.8776202
1.8838 -0.077425897 5.9099798
1.87897 -0.042432699 5.8922601
1.8848 -0.0096765403 5.8888302
1.8774101 -0.027918501 5.8042698
1.87831 -0.0182811 5.8321099
1.89229 0.0020475099 5.8892999
1.88828 0.0111862 5.88379
1.89556 -0.015697099 5.79739
1.8716 -0.00300854 5.8249202
1.89224 0.0196907 5.88623
1.88597 -0.0253375 5.7342801
1.8897001 -0.0042379601 5.7725701
1.89161 -0.0034080599 5.7747002
1.89675 -0.0117354 5.7435198
1.8827699 -0.0083309198 5.81916
1.8774 -0.0195731 5.7062101
1.89202 0.0196827 5.8077502
1.88569 0.037149899 5.8531399
1.89534 0.056009099 5.8822098
1.8928699 -0.0022092999 5.7087698
1.88199 0.0067491601 5.7308402
1.8999 0.0361856 5.7784901
1.89959 0.0412325 5.7822199
1.9010299 0.083414897 5.8840299
1.89412 0.017327501 5.71629
1.90093 0.064764 5.79603
1.89937 0.0391833 5.7058401
1.89385 0.115723 5.8776698
1.9055901 0.094395399 5.8225799
1.91556 0.095173597 5.8172898
1.87828 0.090238199 5.7937398
1.90479 0.086718701 5.7736502
1.88757 0.0240291 5.8098001
1.88878 0.0299823 5.7221298
1.89196 0.00154175 5.7334399
1.89649 -0.00258175 5.70046
1.89844 0.0081219096 5.72227
1.9028701 0.0238463 5.7119899
1.90739 0.0288896 5.68823
1.88542 0.052554999 5.7122002
1.88326 0.0536987 5.7139902
1.8741699 -0.089559399 5.8631001
1.87614 -0.069504797 5.9028702
1.88731 -0.069384404 5.88975
1.86256 -0.040287301 5.8640299
1.8794399 -0.0286655 5.8917398
1.88422 -0.0188138 5.8896799
1.88922 0.000871806 5.8864799
1.88051 -0.0146615 5.8330202
1.88333 -0.0093792202 5.7916198
1.8953 0.045501001 5.88449
1.8973 0.050894 5.8226099
1.90497 0.024523599 5.7558799
1.89618 0.090072498 5.8810701
1.9037499 0.0451493 5.7845502
1.90019 0.077552699 5.822
1.9038399 0.123536 5.8835101
1.87937 -0.0041475599 5.82658
1.89136 -0.0030626501 5.76998
1.90187 0.025075801 5.7762299
1.8997 0.079474904 5.8815098
1.9011101 0.087612599 5.7779799
1.90467 0.094567701 5.82234
1.89735 0.055382099 5.8829699
1.90124 0.0263441 5.7919998
1.88203 -0.0835566 5.90974
1.85996 -0.090560503 5.8815298
1.87866 -0.070989601 5.9065499
1.88747 -0.074744903 5.88482
1.8801399 -0.037812099 5.8911099
1.87494 -0.0406713 5.8808799
1.8876899 -0.0147466 5.81671
1.88146 0.036875799 5.8525701
1.8888299 0.0241157 5.8080001
1.89621 0.043515101 5.8241501
1.88045 0.0353508 5.8073201
1.88263 0.042030402 5.8169899
1.86844 0.0768748 5.7915401
1.92567 0.0912349 5.81743
1.91181 0.081603996 5.7782698
1.89995 0.0249625 5.8905001
1.8953 0.040708799 5.8819098
1.89516 0.069639303 5.8793702
1.89861 0.099669702 5.8779702
1.90315 0.113364 5.88416
1.89726 0.115377 5.8776898
1.9028 0.077862799 5.88727
1.8933901 0.0156925 5.8852801
1.8907 0.0045166202 5.8866701
1.89249 0.00109891 5.8853998
1.8951401 0.024981299 5.8840299
1.89439 0.0454138 5.88132
1.89705 0.070136398 5.8874402
1.8919801 0.116044 5.87501
1.88068 -0.0862009 5.5567598
1.89591 -0.068987899 5.5450501
1.88946 -0.064740501 5.55024
1.88597 -0.066355899 5.5300202
1.90264 0.066660203 5.5060802
1.91663 0.072977901 5.5093002
1.87751 -0.103584 5.6007199
1.87126 -0.087851599 5.6314201
1.8688101 -0.083744198 5.6354299
1.8751301 -0.053822301 5.6284199
1.88134 -0.0375484 5.6230898
1.89929 0.0282107 5.59653
1.90497 0.054000799 5.6012502
1.898 0.0532468 5.5756898
1.89739 0.078630596 5.5474401
1.908 0.121276 5.5338702
1.88148 -0.0302881 5.61028
1.90491 0.0701873 5.5356202
1.84966 -0.117164 5.5921102
1.87942 -0.069351703 5.65203
1.87641 -0.041153401 5.6999602
1.87929 0.0140972 5.6310101
1.89144 -0.0212302 5.6750898
1.88538 -0.023520101 5.6372399
1.89057 -0.0132085 5.67835
1.9069999 0.018654199 5.6756201
1.88227 0.062764101 5.6237402
1.88326 -0.0474816 5.68683
1.87686 -0.055599 5.7532601
1.87424 -0.034830902 5.7283802
1.8911099 -0.0057183602 5.7083001
1.8807 0.0284456 5.6956501
1.90812 0.088758901 5.6981001
1.89798 0.056730699 5.69103
1.88252 0.0099770799 5.7258201
1.89307 -0.00161421 5.7098198
1.86655 -0.069418497 5.72473
1.89513 -0.017149599 5.8038702
1.88868 -0.0148843 5.7975702
1.9013799 0.020445099 5.7516398
1.89794 0.0145111 5.77354
1.88885 -0.0134077 5.7870202
1.8765 -0.0073376801 5.8323398
1.8783 -0.089831002 5.9047499
1.8805 -0.072493501 5.9102998
1.88269 -0.055246402 5.8709202
1.88309 -0.050783101 5.8731298
1.88124 -0.0111981 5.8877101
1.8863699 -0.0037561301 5.8291898
1.90338 0.033831701 5.8498998
1.89922 0.048792198 5.81393
1.89789 0.049298301 5.7863002
1.89788 0.046491101 5.7905798
1.8754801 -0.085864097 5.8819098
1.87851 -0.080926001 5.9095602
1.89976 0.093741499 5.8857799
1.88543 -0.0104777 5.8902202
1.89384 0.0228086 5.8894
1.89461 0.067581698 5.8833899
1.89755 0.0800993 5.88269
1.89572 0.108947 5.8784099
1.87046 -0.118432 5.4930701
1.88208 -0.074340299 5.4914198
1.87293 -0.11049 5.4911499
1.87521 -0.101936 5.5011301
1.88271 -0.082792401 5.54637
1.86883 -0.120953 5.5304799
1.88792 -0.0450956 5.5026598
1.90051 0.036347602 5.4954801
1.8961 0.076292597 5.4799399
1.90906 0.110614 5.4871502
1.88213 -0.066088803 5.5489802
1.88766 -0.0754086 5.5316601
1.8833801 -0.072041303 5.6464601
1.86739 -0.109606 5.6035099
1.90528 0.0284447 5.5964699
1.8898799 0.080509901 5.5276799
1.9080499 0.122138 5.52354
1.90467 0.072546102 5.5385399
1.9055901 0.121295 5.54076
1.88352 -0.026683901 5.6111398
1.8831 -0.0306515 5.6156301
1.88159 -0.095143899 5.62325
1.89008 -0.0113421 5.6769199
1.89066 0.046413399 5.6265202
1.88684 0.031254001 5.6490302
1.8862799 0.068847597 5.6220798
1.88506 0.072835997 5.61764
1.88449 -0.088427499 5.6646099
1.9212 -0.0956643 5.74827
1.87455 -0.039363399 5.7248001
1.90405 0.030654 5.6848898
1.89347 0.060583498 5.6960001
1.89417 0.0206724 5.7164798
1.88142 -0.027117699 5.8137398
1.94934 -0.086289398 5.8181
1.88845 0.0132457 5.7775698
1.8993 0.052524101 5.8199401
1.8794 -0.0290084 5.85076
1.87685 -0.0057040202 5.8329601
1.86894 -0.087289199 5.8745399
1.882 0.022534801 5.8168402
1.8908499 0.025203301 5.8886299
1.89684 0.0977659 5.8872299
1.89149 0.071329199 5.8842301
1.89089 -0.0916401 5.8302302
1.87817 -0.094119899 5.80653
1.89083 -0.0170302 5.8087001
1.89221 -0.030496201 5.7712498
1.8852299 -0.0159589 5.7827401
1.86 -0.024785999 5.7610998
1.88657 0.000251238 5.7856102
1.90239 0.0142646 5.7744498
1.90281 0.031018199 5.77315
1.88353 -0.088223897 5.88557
1.87804 -0.089752801 5.8601699
1.87362 -0.055771898 5.89186
1.88345 -0.0247207 5.88873
1.87597 -0.070075803 5.9024501
1.88599 -0.072743401 5.8854299
1.90149 0.087825701 5.7772598
1.90973 0.043736301 5.7849398
1.88529 -0.0033406301 5.8864102
1.8972501 0.037057601 5.8887
1.8967201 0.094589002 5.8789001
1.89969 0.099282801 5.88131
1.89518 0.063411303 5.8826799
1.8891 0.0435559 5.8825598
1.89 0.018001899 5.8835802
1.88938 -0.0051710401 5.8888698
