# .PCD v0.7 - Point Cloud Data file format
VERSION 0.7
FIELDS x y z
SIZE 4 4 4
TYPE F F F
COUNT 1 1 1
WIDTH 1608
HEIGHT 1
VIEWPOINT 0 0 0 1 0 0 0
POINTS 1608
DATA ascii
4.7073898 0.82203299 5.9019899
4.60251 0.86606401 6.03333
4.7340498 0.82012999 5.86375
4.6623101 0.83846402 5.9703202
4.6972198 0.82197601 5.9330301
4.7933698 0.72141999 5.8808799
4.7953601 0.72156698 5.8812499
4.7980299 0.72042298 5.8817101
4.6626 0.83862799 6.0008998
4.8081102 0.72031701 5.8800602
4.8132 0.72047102 5.87887
4.6926098 0.82656801 5.9797301
4.8220701 0.71862698 5.8803601
4.81988 0.71853 5.8874898
4.6519599 0.84231001 6.0522399
4.8255 0.71682101 5.8901901
4.7056398 0.835576 5.9874101
4.5197301 0.87791997 6.2540002
4.8401699 0.71675301 5.8802199
4.68888 0.82564598 6.0338101
4.6097798 0.85172302 6.1425099
4.6574702 0.84203899 6.08182
4.5388198 0.87350303 6.2451
4.8494501 0.71462202 5.88029
4.81113 0.806014 5.8705401
4.7194099 0.83240098 5.99508
4.67837 0.84768403 6.04813
4.8504 0.715545 5.88131
4.6657901 0.840307 6.0808802
4.85638 0.71564901 5.8782201
4.78616 0.811728 5.9168601
4.8596702 0.71380198 5.8807402
4.8252501 0.80365998 5.86902
4.7708998 0.81801599 5.9435
4.6914001 0.834306 6.0593801
4.8682098 0.71319002 5.8802199
4.6513801 0.85069001 6.1203699
4.8759098 0.71198899 5.87818
4.8698902 0.70878601 5.89257
4.8366399 0.81036001 5.8758202
4.7404599 0.832726 6.0088201
4.6816602 0.849123 6.0883002
4.87993 0.71325201 5.87711
4.8457499 0.80131298 5.8713698
4.85111 0.80109 5.8702502
4.8092599 0.80990702 5.9285498
4.7737799 0.817864 5.9776902
4.7114301 0.83245301 6.0636101
4.8860402 0.711882 5.87744
4.5987201 0.86536402 6.2178798
4.8579102 0.79991603 5.8709002
4.1107702 0.78354901 4.68435
4.7247 0.83723497 6.0534101
4.8152299 0.80756998 5.9408798
4.8704801 0.79727298 5.8701501
4.8701601 0.79832703 5.87328
4.6174402 0.86292201 6.2156701
4.6880798 0.85539597 6.31424
4.8355498 0.81392097 5.9194798
4.7925301 0.82271397 5.9790001
4.8763499 0.79751998 5.8709302
4.5675602 0.87315202 6.2963099
4.6151299 0.85698497 6.2428098
4.7315202 0.83505702 6.0905099
4.8978901 0.79176003 5.8701501
4.8958101 0.79511201 5.87149
4.8327899 0.81320602 5.95818
4.7539802 0.82797199 6.0753198
4.8274899 0.81312901 5.9777098
4.71067 0.85284603 6.1294699
4.9094701 0.79317999 5.8703499
4.7740502 0.83187598 6.0525398
4.7107501 0.84974599 6.1419601
4.93957 0.80297703 5.83675
4.80791 0.82288098 6.01864
4.8607998 0.81207699 5.9496598
4.6266398 0.86789203 6.2689099
4.7192402 0.83731598 6.1587701
4.7135901 0.83597398 6.16992
4.8109102 0.815422 6.0415201
4.7917099 0.83148998 6.07793
4.9526601 0.78911501 5.8681502
4.6286602 0.86900598 6.2997799
4.7415199 0.83912897 6.15587
4.8424902 0.83630401 6.1115999
4.90803 0.79822201 5.9405899
4.70157 0.85709602 6.2106299
4.6085 0.872024 6.3407502
4.7874799 0.83728099 6.10391
4.8783998 0.800924 5.9909201
4.87075 0.81400597 6.0022502
4.87253 0.81417799 6.00211
4.82727 0.83475399 6.0682201
4.7709599 0.832389 6.1598401
4.7048302 0.84987903 6.2460499
4.79216 0.82880598 6.1359601
4.8225598 0.83113003 6.0981202
4.7004399 0.85942203 6.26823
4.6721501 0.86407602 6.3055801
4.9025102 0.800475 6.0112901
4.8478599 0.81727499 6.0816798
4.7311301 0.84645897 6.2374101
4.6848798 0.85834002 6.3162098
4.8329401 0.82917798 6.0844202
4.8824501 0.80226201 5.9895701
4.6275501 0.865444 6.2660999
4.8852 0.79711699 5.9010201
4.68009 0.853971 6.1624298
4.5373201 0.88135999 6.32832
4.7926102 0.83320302 6.1709099
4.88941 0.802297 6.0138202
4.74788 0.84878302 6.1915598
4.0466199 0.79000902 4.6831799
4.75002 0.83287901 6.1241002
3.9885199 0.79956901 4.6677599
4.9131799 0.79350501 5.8706298
3.9047101 0.80010498 4.6641302
3.7946601 0.77774698 4.6760702
3.7980001 0.77003002 4.6770401
4.6545 0.84838301 6.1032701
4.6245499 0.84548903 6.0486798
4.6458802 0.83804399 5.9703598
4.6587 0.830127 5.9275699
4.8045502 0.63315701 5.8940301
4.36168 0.83137602 5.5191698
4.5671501 0.84675199 5.9538698
4.6261201 0.87668598 6.4066401
4.5626001 0.88919002 6.4850402
4.4225302 0.84322798 5.7097802
3.6888299 0.78354299 4.6596999
3.9270899 0.79563999 4.7737398
4.2060499 0.816962 5.30024
4.5381198 0.89433402 6.5145001
4.0801501 0.87181097 5.7067499
4.20961 0.863671 5.5914998
4.1464901 0.88168198 5.70962
4.4341002 0.86394101 5.1149001
4.2139201 0.85582 5.8277798
4.2880998 0.85842502 5.7017398
4.2677698 0.87187803 5.7245698
4.3185501 0.84303701 5.7665601
4.2649202 0.85959101 5.8541598
4.3601398 0.85590899 5.7388902
4.3856001 0.851215 5.7149401
4.3555298 0.85981703 5.8390298
4.6901898 0.76367402 5.3050399
4.6866598 0.768767 5.2993102
4.4717898 0.82726598 5.65872
4.3881898 0.85940099 5.8512001
4.3808298 0.863392 5.8895302
4.4066901 0.86007798 5.84829
4.7357302 0.76321602 5.3410902
4.7309799 0.76906699 5.3376298
4.5893502 0.77093899 5.66746
4.3926902 0.86079401 5.8987198
4.4236798 0.84693998 5.8712301
4.4046602 0.86083299 5.8811798
4.6359701 0.87933499 6.38238
4.5932698 0.80963302 5.62567
4.3582201 0.87997198 5.9881902
4.5190802 0.83622301 5.7676201
4.7870002 0.75710899 5.3643699
4.6328702 0.81248403 5.6083102
4.56639 0.82298499 5.7547598
4.4086599 0.87399697 5.9864202
4.4548001 0.85877001 5.9433999
4.4272399 0.88113397 5.9815602
4.4292498 0.87971097 5.9878201
4.4310098 0.873981 6.0172601
4.4312601 0.85233301 6.0694098
4.43015 0.85234302 6.07164
4.5165601 0.849024 5.9382801
4.5688601 0.838121 5.8596702
4.4735599 0.86461002 6.0043802
4.70823 0.80062598 5.6744199
4.5007701 0.85850602 6.0374098
4.5760899 0.84175003 5.9368601
4.5996799 0.839302 5.9254098
4.5950999 0.83843601 5.9407601
4.5614901 0.85134602 6.0078402
4.6256599 0.83844501 5.9125199
4.54707 0.852916 6.0532198
4.59658 0.83950597 5.9853201
4.5179501 0.868828 6.0966401
4.79245 0.63516802 5.8910799
4.7958398 0.63408798 5.8932099
4.6194201 0.84168202 5.96737
4.7203498 0.810601 5.8287601
4.80621 0.63393903 5.89184
4.6894598 0.81516403 5.9028502
4.5766101 0.84949702 6.0633402
4.80933 0.63277203 5.8941898
4.6060901 0.85281098 6.02703
4.7319498 0.81543398 5.8523698
4.7083201 0.823892 5.9121599
4.6196499 0.84793901 6.0401402
4.7885499 0.72174102 5.8817801
4.6333299 0.84648699 6.0269299
4.5443702 0.86479503 6.1606302
4.5967898 0.85625398 6.0839701
4.5447602 0.86563498 6.1633
4.6554899 0.84098899 6.00315
4.64116 0.83922201 6.0290098
4.8036599 0.72248697 5.8773999
4.6693902 0.84026998 5.9973302
4.7651801 0.81544501 5.8758898
4.81673 0.719769 5.8789401
4.6789498 0.82909298 6.0191598
4.6437302 0.836465 6.0749602
4.6244602 0.84638399 6.0985699
4.71626 0.82064098 5.9762201
4.7035298 0.824902 5.99367
4.7252798 0.82395601 5.9626398
4.6343799 0.84439498 6.0988498
4.74933 0.80773598 5.95473
4.8405499 0.71795899 5.8776202
4.8080201 0.80503702 5.8692498
4.8443599 0.71681303 5.8786201
4.7107401 0.82126099 6.0178099
4.7811098 0.80148399 5.9224901
4.7986102 0.80598402 5.91606
4.74367 0.82842499 5.9951301
4.7070899 0.82538402 6.0581598
4.61199 0.857346 6.18753
4.76262 0.81664598 5.9861898
4.87853 0.71389401 5.8768001
4.8496799 0.79790503 5.8713999
4.8084502 0.81005597 5.9284
4.8841701 0.71391201 5.87638
4.85533 0.80021298 5.87114
4.7273998 0.82528597 6.0550699
4.5846901 0.86806601 6.2546601
4.8617001 0.79884303 5.8717999
4.68928 0.82186103 6.12501
4.8329902 0.819556 5.9142399
4.5701499 0.87149501 6.2954602
4.8171601 0.805004 5.9584699
4.8840299 0.79536003 5.87359
4.7716799 0.84595001 6.0191302
4.6754699 0.85360199 6.16399
4.7043099 0.848764 6.1283998
4.6010499 0.86548001 6.2789102
4.67906 0.85575801 6.17698
4.8903399 0.800798 5.89644
4.6328702 0.87297499 6.2543998
4.7329102 0.84225798 6.1211901
4.5072699 0.857279 6.0671802
4.4890499 0.86743599 6.0872798
4.93226 0.79086798 5.8709798
4.7749701 0.82402301 6.0915799
4.6061602 0.86568898 6.32341
4.93854 0.79114199 5.8695402
4.5731902 0.87917501 6.3737302
4.8411498 0.80581403 6.0135899
4.7017398 0.85148501 6.2009201
4.7657599 0.63853401 5.8915
4.8383098 0.83097702 6.01718
4.7031002 0.85651499 6.2114201
4.75563 0.82925498 6.15942
4.6424398 0.87034202 6.3185101
4.5622802 0.88462502 6.4286299
4.6097598 0.87471902 6.3678598
4.5725002 0.88253897 6.42663
4.8829999 0.80324101 6.00914
4.7464299 0.84915698 6.19134
4.5920701 0.87921399 6.4018102
4.8656802 0.80803001 6.0367098
4.8769999 0.81194001 6.0222001
4.5241199 0.92035902 6.5025802
4.7581801 0.85625201 6.1902099
4.5988002 0.88078099 6.4075599
4.6440401 0.86714 6.3489399
4.5272102 0.89459902 6.51016
4.72787 0.85540199 6.2462401
4.5564399 0.85513198 6.0067801
4.7600398 0.84747601 6.2068901
4.7790799 0.83212203 6.1573
4.8663602 0.81892502 6.0357299
4.9606299 0.79097903 5.8653798
4.7414398 0.84337902 6.1578302
4.6691899 0.85880202 6.25037
4.7921901 0.83073699 6.07897
4.10991 0.78586501 4.6818399
4.8154302 0.811652 6.0032902
4.7723198 0.63878399 5.8942399
4.6775899 0.85365403 6.1635799
4.8745098 0.79689902 5.8720798
4.6171799 0.86314398 6.2161798
4.5272102 0.878995 6.2747102
4.7971501 0.80637002 5.8706799
4.83114 0.71740597 5.8804898
3.99841 0.80338103 4.6773601
4.6918602 0.840657 5.9882798
4.5737801 0.859936 6.1633701
4.60325 0.85582 6.1180902
4.5831099 0.85183102 6.0252399
3.8034501 0.77392298 4.6721101
4.5896502 0.84488499 6.0166502
4.53406 0.856121 6.0676799
3.9409101 0.81350201 4.6389298
4.7399702 0.76764703 5.3426199
4.7017598 0.858796 6.2701898
4.6698599 0.867755 6.3070798
4.7719102 0.830567 6.15943
4.69665 0.76896501 5.31253
4.9056301 0.795416 5.9453001
4.6888299 0.77040398 5.3022799
4.4650202 0.84783298 5.84238
4.70929 0.84954399 6.1426401
4.7730699 0.83234501 6.0521798
4.7846298 0.76154399 5.3600402
4.8278699 0.81817198 5.9737101
4.64991 0.76762098 5.2272902
4.7715001 0.80919302 5.9865499
4.86936 0.714984 5.8762102
4.85607 0.71627599 5.8786502
4.7196202 0.83321702 5.9948201
4.80896 0.80539501 5.8712001
4.6771998 0.84804398 6.0486698
4.43256 0.854527 6.0696702
4.5201302 0.87774801 6.25564
4.8273401 0.71885902 5.8790002
4.4316502 0.85411102 6.0722299
4.5137801 0.84977299 5.9425402
4.6613798 0.81314802 5.7459798
3.73681 0.78285301 4.6702499
4.78262 0.63459098 5.9024301
4.6647 0.81888402 5.7373099
4.0328598 0.793226 4.6775398
4.5032401 0.86000597 6.0653701
4.5683398 0.84869301 5.9535298
4.9637299 0.79167497 5.8566198
4.91225 0.80680197 6.0489101
4.8168602 0.83861202 6.1794701
4.7951198 0.63432598 5.8874502
4.1599798 0.77686399 4.69275
4.8853002 0.81153798 6.00664
4.81143 0.720617 5.8738198
4.6972098 0.82629102 5.9864702
4.1941099 0.86188 5.6118102
4.92838 0.79191399 5.8679099
3.75284 0.78703398 4.6756902
4.0598001 0.79089397 4.6784
4.0379 0.79873401 4.67138
4.5136199 0.89026499 6.4074702
4.2102699 0.85821497 5.5977898
4.5735202 0.86010498 6.1607499
4.4321399 0.86763698 5.9839802
4.7332201 0.76743299 5.3387699
4.43747 0.864416 5.98313
4.54636 0.85725099 6.0072598
4.9226599 0.79150701 5.8668399
4.8959198 0.79447502 5.8689399
4.9099498 0.79231697 5.86801
4.5445099 0.83648998 5.8243899
4.67032 0.83905202 6.0792398
4.5639701 0.88800299 6.4187799
4.2807798 0.85946703 5.7177801
3.7161601 0.78430301 4.6578302
4.35009 0.85206002 5.7751698
4.2062302 0.86978698 4.86339
4.3133402 0.804187 5.1611099
4.09936 0.85571498 5.33532
4.0755 0.86315697 5.37463
4.1568999 0.85411698 5.5088401
4.8470001 0.800147 5.8698001
4.29357 0.85892397 5.7919598
4.3951702 0.85132802 5.7344398
4.46841 0.855232 5.9394898
4.6693902 0.84318501 6.1191401
4.6385198 0.86457098 6.17768
4.57514 0.872859 6.3223
4.1902399 0.85206902 5.6192899
4.28578 0.813806 5.2248201
4.6813302 0.83848798 6.0865598
4.7019501 0.84433299 6.0626202
4.5725298 0.83414298 5.8615398
3.68208 0.79434597 4.65377
4.0201001 0.79809397 4.6656098
4.9215698 0.79612601 5.8709002
4.93366 0.791381 5.86659
4.1128602 0.78872401 4.6651402
3.75804 0.77941102 4.65832
4.6863599 0.84748101 6.1110401
4.7290101 0.85230798 6.21208
4.8297 0.80672199 5.87222
4.79988 0.80877602 5.8705001
4.8695502 0.79665798 5.8705502
4.6222501 0.82660902 5.84797
4.53897 0.87270498 6.2474399
4.7576098 0.850658 6.1539402
4.42626 0.84233302 5.7130799
4.56705 0.87153798 6.2567401
4.81073 0.716313 5.9001799
4.6943302 0.81587303 5.7843499
4.5020099 0.861655 6.0302401
4.7483602 0.827932 6.08077
4.61339 0.83654499 5.90065
4.8564401 0.79856998 5.8699498
4.8001399 0.80682403 5.91785
4.1337399 0.83690703 5.33393
4.8389101 0.80073798 5.8691902
4.7130098 0.82556999 5.9742699
4.8347602 0.80091602 5.8691001
4.8415098 0.798136 5.8649702
4.8232899 0.803339 5.8698201
4.7779102 0.77012902 5.3559899
4.54319 0.86753398 6.1623001
4.8703799 0.794644 5.8677301
4.3243999 0.84569401 5.77108
4.7573299 0.76501298 5.3496499
4.7475901 0.76673597 5.3461199
4.89218 0.79469001 5.8687301
4.7111602 0.76903301 5.3255901
4.59339 0.84583801 6.0553999
4.7873802 0.837134 6.1021399
4.41714 0.85388798 5.8621998
4.67698 0.768794 5.28936
4.80059 0.80639797 5.86795
4.6603198 0.76722997 5.2558098
4.6468 0.76946002 5.2354698
4.2393398 0.84582102 5.5762501
4.70854 0.84391302 6.1417098
4.7929702 0.63605899 5.8811798
4.6127801 0.84680402 6.0370698
4.3308201 0.83964097 5.9010901
4.5402198 0.89091998 6.4302402
4.90488 0.79336798 5.8684201
4.07409 0.86204702 5.3832402
4.6990099 0.76915097 5.3148398
4.86447 0.82432503 6.0304899
4.5714898 0.88968199 6.44873
4.95823 0.79073697 5.8663402
4.7028699 0.84985203 6.2469602
4.9513402 0.79152799 5.8696198
4.9133701 0.80313301 5.9454799
4.9221001 0.79670799 5.8699098
4.7866502 0.635364 5.8934398
4.5791798 0.883376 6.42417
3.67467 0.79917002 4.6746302
3.8169799 0.77388698 4.6599202
4.00841 0.80186403 4.6537499
4.0692401 0.81253701 4.9286399
3.9126599 0.88790202 5.5947099
4.2258301 0.80649197 5.00771
4.0074201 0.88287997 5.6141601
4.3084898 0.80383003 5.1708698
4.0503402 0.88638997 5.6803198
4.23841 0.830248 5.4131198
4.0822501 0.88594103 5.6715598
4.2655702 0.83948398 5.4798398
4.1911302 0.86287802 5.6162901
4.2488699 0.83605999 5.6604199
4.3509402 0.84054202 5.50631
4.2640901 0.84358102 5.74894
4.2676201 0.84577799 5.8696299
4.2677898 0.87433702 5.8635402
4.6645002 0.764557 5.2624302
4.5696602 0.79354697 5.44347
4.4488001 0.85893101 5.5563402
4.3377099 0.85460901 5.8986001
4.6942801 0.76882797 5.3113499
4.6438699 0.776932 5.4489999
4.39851 0.85623503 5.8447099
4.7555399 0.76194203 5.3548002
4.6300201 0.79636902 5.5676398
4.4296899 0.86129898 5.8733602
4.77842 0.76329499 5.35743
4.5771098 0.85571802 6.0717301
4.8070798 0.63463497 5.8905401
4.5448198 0.83710802 5.7862
4.62326 0.81012601 5.68437
4.4535198 0.85881799 5.9461198
4.6296902 0.812141 5.68257
4.4693198 0.85541803 5.94168
4.4285202 0.85126603 6.07548
4.52844 0.85685199 6.0202699
4.5855899 0.83022201 5.8659902
4.6708598 0.81525803 5.7681999
4.6717401 0.81864601 5.82302
4.5947099 0.83919501 5.9425802
4.6144199 0.83765799 5.9678001
4.7919798 0.63439298 5.8940301
4.7409301 0.81009102 5.8343601
4.73314 0.81910503 5.8689299
4.7034898 0.82097501 5.9173799
4.6954198 0.82093298 5.93506
4.6834798 0.83257198 5.9450402
4.8011899 0.72066998 5.8831801
4.7148399 0.82781601 5.9581499
4.5192099 0.879004 6.2546201
4.8206401 0.71879601 5.88269
4.82833 0.71762699 5.8825002
4.8130102 0.80466598 5.8737102
4.8421898 0.713862 5.8899899
4.8259602 0.80225003 5.8738799
4.8122702 0.80909598 5.8916101
4.8305202 0.80134302 5.8734698
4.7508798 0.81844503 5.9892602
4.8561502 0.71429503 5.8833299
4.7421598 0.83010697 6.0057902
4.8654499 0.71473002 5.8812099
4.8597598 0.70704198 5.89639
4.8501801 0.79922903 5.8740802
4.8668499 0.79535598 5.8730798
4.63095 0.86230898 6.2080402
4.8457499 0.81253803 5.9147501
4.8787498 0.79553998 5.8740702
4.8881998 0.79568398 5.8730202
4.8933802 0.79430199 5.8735199
4.9007502 0.79109102 5.8712301
4.8834701 0.79553598 5.90307
4.9105401 0.79299498 5.8734698
4.9124298 0.79180902 5.8734398
4.5799599 0.87800097 6.3649998
4.6413002 0.87179202 6.3222799
4.9403501 0.78954297 5.8726702
4.6560798 0.85808003 6.2648501
4.9308 0.79139698 5.87256
4.6058698 0.86949497 6.3248401
4.9270201 0.790151 5.8737702
4.51401 0.84862101 5.9444098
4.67415 0.85440499 6.1817598
4.8671899 0.79714602 5.8745799
4.8610802 0.796426 5.8730102
4.7909098 0.63199198 5.9068999
4.7941999 0.63368899 5.8966599
3.7049401 0.78243202 4.6545601
4.8547502 0.71431798 5.8829498
3.70732 0.78713399 4.6645298
3.7423999 0.78545302 4.66046
4.8194799 0.803307 5.87396
3.9561701 0.80787301 4.6496501
4.0970201 0.79406703 4.6736898
4.2869501 0.81614798 5.2272301
4.8091898 0.80494201 5.8730502
4.8053498 0.80530202 5.8722901
4.7186999 0.82479298 5.9921398
4.8255601 0.71726102 5.8843699
4.2284498 0.87070101 5.8025999
4.3562002 0.84765899 5.6761298
4.7476702 0.82147002 5.9270401
4.62713 0.84448099 6.0999298
4.6747398 0.76427299 5.28829
4.4449401 0.835989 5.6316099
4.3945498 0.848122 5.7401299
4.3778 0.85253102 5.8003101
4.7178102 0.76927102 5.33218
4.74472 0.766298 5.3495598
4.6275501 0.84889001 6.0331101
4.4514198 0.85537601 5.9422598
4.4282098 0.87010098 5.98388
4.4341102 0.85541397 6.0700202
4.91962 0.79013503 5.87291
4.5940499 0.84663498 6.05547
4.5339599 0.84833097 5.95508
4.8340702 0.80094498 5.87429
4.68086 0.83390898 6.0908599
4.7985601 0.80370802 5.9193301
4.0609598 0.79453099 4.6644602
4.0974202 0.78862602 4.6704898
4.1091399 0.788885 4.6687799
4.4458098 0.85375398 6.0620799
3.96925 0.88970602 5.5903001
4.2671499 0.84748501 5.43647
4.1608801 0.87821299 5.7323899
4.19102 0.87 5.7842999
4.1805601 0.87993002 5.7897701
4.3556399 0.84648401 5.6813898
4.6515198 0.76402098 5.2300701
4.6536999 0.810938 5.6869602
4.3958001 0.84432501 5.6653099
4.42138 0.84599 5.87327
4.5451498 0.83247203 5.8304701
4.7920799 0.76086497 5.3597999
4.8189001 0.82798201 6.05545
4.92487 0.79064202 5.8757901
4.9246702 0.78937697 5.8741102
4.62499 0.81164497 5.68402
4.65134 0.867208 6.3001299
4.9176102 0.79234701 5.8736801
4.6592202 0.76759601 5.2600398
4.5627699 0.88770598 6.4240098
3.73086 0.78486502 4.66574
3.8689799 0.77834702 4.71281
3.8989401 0.80105299 4.65801
3.6322701 0.919074 5.4621
4.0382299 0.79423398 4.66537
4.1699901 0.76354498 4.8627801
4.1042199 0.77716702 5.4094801
4.1143298 0.83165097 5.3013802
4.2053699 0.822339 5.1273999
3.9915299 0.87400001 5.6672001
4.00421 0.88314903 5.6125398
4.0019898 0.88850802 5.7283301
4.1338201 0.86320299 5.5750699
4.3260798 0.83904499 5.5194101
4.33535 0.83922702 5.59091
4.2868199 0.85833102 5.70402
4.4502401 0.82456899 5.51404
4.3926401 0.84167498 5.6518698
4.5411 0.81566298 5.4218302
4.6714802 0.768978 5.2853899
4.4221601 0.84027201 5.71135
4.5336299 0.814327 5.5494399
4.6924601 0.77305901 5.31285
4.71242 0.76726002 5.3313498
4.46064 0.84326601 5.7448502
4.7130499 0.77130002 5.33038
4.5136199 0.81142801 5.7405801
4.3940001 0.877698 5.8682699
4.7328601 0.77106899 5.3432598
4.47931 0.84396398 5.79142
4.5817599 0.81754202 5.6326299
4.4140601 0.86495101 5.9602098
4.7869201 0.82224798 6.08038
4.4322801 0.852552 6.0685701
4.9169998 0.79044002 5.8726902
4.5982699 0.83367902 5.8777599
4.6443 0.819435 5.8112402
4.69311 0.84151798 5.8875499
4.7048502 0.82495099 5.90134
4.79706 0.80729699 5.8727002
4.8052702 0.80578202 5.87256
4.8052402 0.80962801 5.8737898
4.81142 0.80422801 5.8724999
4.7398901 0.82187003 5.9868302
4.7487898 0.83932102 6.0029502
4.8406401 0.800273 5.8735499
4.8523202 0.799712 5.87428
4.8597398 0.79604799 5.8716698
4.6006098 0.86635602 6.2827401
4.87994 0.79487503 5.8733401
4.88585 0.79436898 5.8740101
4.9000502 0.79100603 5.8716202
4.8998098 0.79327703 5.8738699
4.6830902 0.84711403 6.2055998
4.9047499 0.792458 5.8732901
4.6244302 0.83179301 5.91857
4.8904099 0.79434001 5.8741202
4.88235 0.79548401 5.8743401
4.8506198 0.79968297 5.8743
4.8502002 0.79787999 5.87288
4.8389702 0.80039603 5.8734002
4.8297701 0.80191398 5.8733902
4.63375 0.84937799 6.1715698
4.2870498 0.86255801 5.5213599
4.57376 0.85950398 6.1639299
3.7685201 0.77606398 4.6529398
4.6310601 0.70272702 4.7932
4.6558599 0.85737097 6.26577
4.9105501 0.79245901 5.8734002
4.7501502 0.82670802 6.0766001
4.86166 0.80058402 5.8750801
4.8401399 0.79824799 5.8723402
4.4349098 0.85377598 6.0673299
4.5490799 0.839028 5.8400602
4.81318 0.80397701 5.8727798
4.4576802 0.859833 5.9421601
4.6709299 0.83860499 6.0789399
3.7944601 0.77672398 4.6682
4.6964402 0.82011497 5.93607
4.22683 0.80655301 5.00951
4.6433301 0.78164601 5.4403701
4.68084 0.76853901 5.2977901
4.6919398 0.76939303 5.3125901
4.8122401 0.79039901 6.0373101
4.9172001 0.79098302 5.8692398
4.76682 0.76421398 5.3603201
4.7817502 0.76553702 5.3648601
4.9130402 0.79372501 5.8755999
4.8777699 0.79675502 5.8750401
4.4684 0.85611397 5.9384599
4.78894 0.759633 5.3670802
4.6975298 0.768525 5.3213301
4.6861701 0.76444602 5.3067799
4.6687799 0.773323 5.2837501
4.9062901 0.79435199 5.8754501
4.8376398 0.80245399 5.8754201
4.8389101 0.79986203 5.8713799
4.8235102 0.80395198 5.8733101
4.2625699 0.87165099 5.8607998
4.8924599 0.79578698 5.87498
4.8706498 0.79896402 5.8764601
4.87569 0.79514003 5.86901
4.2391 0.85544598 5.5560002
4.0852098 0.88142598 5.6827998
4.86273 0.79744202 5.8722401
3.9767001 0.88389301 5.5903802
3.94014 0.81434703 4.6424999
3.9072599 0.79447597 4.6588602
3.76092 0.77238899 4.6822901
4.7445402 0.82425499 6.03264
4.1322799 0.86457402 5.5748801
4.4460702 0.85364401 6.0632501
4.8138099 0.80349898 5.86938
3.80972 0.77466798 4.6750998
3.8199699 0.78161597 4.6717701
3.69345 0.89148903 5.3203502
3.96928 0.80499601 4.6673899
3.99559 0.80369401 4.6680999
4.0181298 0.80378401 4.6724501
4.0497398 0.7938 4.6739001
4.0780702 0.79094797 4.6724701
3.7779601 0.89262599 5.4552398
4.0456901 0.81037802 5.2300301
3.8729701 0.88945597 5.4269099
3.8662701 0.89757597 5.5801301
4.0213199 0.85221797 5.69769
4.20538 0.81736499 5.2954402
3.9995301 0.89225101 5.71737
4.1122999 0.866822 5.5873699
4.20191 0.85908997 5.6251202
4.1518798 0.874883 5.7216702
4.1521101 0.88631898 5.8554201
4.4310002 0.84043199 5.2715702
4.3336701 0.83783501 5.5809798
4.3473001 0.83979601 5.5480199
4.4814801 0.77404201 5.4047198
4.3987398 0.84855402 5.6314101
4.3094301 0.917162 5.6680799
4.3102798 0.87109703 5.8547201
4.3103399 0.871997 5.8976998
4.6624098 0.770136 5.2736101
4.6887102 0.76884699 5.3110399
4.6966701 0.77392399 5.3211002
4.6203198 0.80282599 5.48241
4.7453098 0.77026099 5.3554502
4.7660799 0.76080698 5.3600998
4.4263201 0.84970099 6.0752902
4.5885401 0.85442698 6.1283202
4.79562 0.804793 5.8692799
4.8050399 0.80480897 5.8686399
4.80548 0.807365 5.87293
4.8724098 0.795672 5.87181
4.87047 0.79695499 5.87222
4.8413501 0.79575801 5.91535
4.86728 0.79692203 5.8724599
4.8552599 0.79968601 5.8736801
4.8340502 0.80060101 5.8709602
4.8309102 0.80146402 5.8702998
4.8040199 0.80483902 5.8704
4.8176899 0.63372201 5.8881001
4.8842001 0.79455602 5.87218
4.88269 0.79457998 5.8722601
4.4457898 0.85156101 6.0609598
4.8404498 0.79946202 5.8716798
4.4277701 0.85128802 6.07584
4.6308398 0.81280899 5.68013
4.7508602 0.759655 5.3548498
4.7409701 0.76399601 5.3515401
4.7297001 0.77119398 5.3450398
4.7258701 0.76795298 5.34233
4.7135 0.77239901 5.3336401
4.6719398 0.76854402 5.2881198
4.4251299 0.83400601 5.72189
4.6558599 0.76946503 5.25634
4.3250198 0.84559703 5.7687001
4.3241 0.84056199 5.5144601
3.6796401 0.78822201 4.6733799
3.89961 0.80279398 4.68016
4.6498899 0.76135898 5.2301502
4.6407299 0.87425703 6.46064
4.6308599 0.87961698 6.4454899
4.2516999 0.75703198 4.73559
4.2478199 0.76510698 4.7344198
4.6554899 0.866997 6.4057102
4.67976 0.86895603 6.3817301
4.6124802 0.88572103 6.44804
4.62922 0.87856197 6.4258299
4.6516099 0.86792499 6.4046402
4.6318598 0.874726 6.3854299
4.6944199 0.86356401 6.33147
4.7993302 0.75620103 5.3804998
4.7772598 0.76047897 5.3573499
4.6897202 0.76795101 5.3041501
4.6684599 0.86123598 6.3214998
4.6810799 0.85795999 6.3207998
4.6798201 0.76800799 5.2957902
4.7010002 0.76549602 5.32026
4.59092 0.87816101 6.4033899
4.58957 0.87835801 6.4043102
4.7161002 0.84080398 6.1364398
4.5306301 0.89114499 6.45821
4.7054801 0.85397297 6.2076302
4.7768602 0.76873899 5.36132
4.71176 0.83920699 6.1385102
4.6227298 0.865426 6.26825
4.5439 0.86062998 6.0992198
4.7056599 0.839257 6.0655699
4.5388899 0.86711901 6.16504
4.6122098 0.86380899 6.24401
4.55861 0.88824999 6.4439101
4.6169701 0.868285 6.3432899
4.59412 0.87178999 6.3284101
4.7544799 0.82799 6.0005002
4.6242199 0.861664 6.2191601
4.5473099 0.88486999 6.3977399
4.7315402 0.76420897 5.3449898
4.5794201 0.85294199 6.06812
4.63274 0.86772799 6.3003001
4.5159101 0.89104998 6.4084201
4.69312 0.83750802 6.0314498
4.6671801 0.84037399 6.0799599
4.7251501 0.76301199 5.3389201
4.6687298 0.83957899 6.0797601
4.7512102 0.82781398 6.0799499
4.5644202 0.88624501 6.4184699
4.5838599 0.87022102 6.2256899
4.5166001 0.87839001 6.3022199
4.6062698 0.86751997 6.26757
4.6441398 0.83757401 5.9814501
4.5711799 0.87123001 6.29634
4.6240602 0.86474299 6.2678599
4.8817902 0.79561502 5.87532
4.82339 0.81633598 5.94239
4.6456699 0.86029297 6.2678199
4.6743302 0.892645 6.1792798
4.6693602 0.846582 6.1542401
4.7924099 0.76186597 5.36272
3.78144 0.77900702 4.67026
3.9400201 0.90295202 5.7571101
4.1545801 0.86622602 5.57582
4.2452502 0.85028499 5.7226801
4.2790198 0.85857099 5.7038999
4.2915602 0.85961801 5.7049599
4.34935 0.84348798 5.5864801
4.2523298 0.854366 5.9131999
4.2751002 0.882321 5.96277
4.7857599 0.76324999 5.3612299
4.3434601 0.86297798 5.8384299
4.3954101 0.846084 5.7446599
4.2965298 0.87648302 5.9713202
4.66153 0.77363801 5.2659998
4.3901401 0.85863203 5.8551798
4.3811402 0.86284 5.8989401
4.6910801 0.765145 5.31425
4.5825 0.81049597 5.5897698
4.4653001 0.84729201 5.8266101
4.7337899 0.76990497 5.3456702
4.4654002 0.85403502 5.8786402
4.75315 0.76696002 5.3543
4.55686 0.83932602 5.8716202
4.7631898 0.76535302 5.3571401
4.7701201 0.76382399 5.3589101
4.4779401 0.86163598 6.0329299
4.4767098 0.86255097 6.0345101
4.54673 0.83431 5.8173499
4.4303298 0.85214502 6.0719199
4.6232901 0.81461197 5.6807399
4.5213199 0.84587902 5.8998799
4.59587 0.82504803 5.77668
4.51331 0.85022199 5.94382
4.5752401 0.83605403 5.8586898
4.5120602 0.85281599 5.9849401
4.4776301 0.84709102 5.8530002
4.5673499 0.841901 5.9370599
4.6351099 0.826231 5.8603201
4.6101899 0.83885503 5.9004102
4.7235799 0.80496103 5.7300501
4.55511 0.85716701 6.0371099
4.58254 0.85238999 6.0296898
4.5548601 0.85441798 6.0842199
4.6768599 0.85105199 6.1672702
4.7372098 0.80500299 5.75875
4.7258902 0.807796 5.7794499
4.71805 0.84022403 6.0857801
4.7191701 0.81037903 5.8298998
4.71419 0.76919597 5.3331699
4.5978398 0.85111099 6.05758
4.5966201 0.85346502 6.0583901
4.7251101 0.81665701 5.8660698
4.7035699 0.82438898 5.90309
4.69626 0.82244402 5.9332299
4.62467 0.85222501 6.1019502
4.6907001 0.83247 5.99752
4.7625098 0.80977702 5.88059
4.6882401 0.837731 6.0160398
4.8012099 0.63417 5.8963699
4.6751699 0.84319198 6.0566602
4.6240902 0.85741699 6.1565599
4.7511902 0.81490701 5.9463701
4.78301 0.80851799 5.9144902
4.8258901 0.71840101 5.8842301
4.8271399 0.71801698 5.8844199
4.8236699 0.80321598 5.87465
4.79915 0.80477703 5.9173899
4.8008599 0.80459797 5.9171
4.7483501 0.833211 6.00597
4.6918201 0.769324 5.31318
4.6884599 0.77081698 5.3085799
4.8406601 0.80023301 5.8748798
4.8109002 0.80510002 5.87432
4.6858401 0.84256601 6.0785899
4.8012099 0.80639303 5.8737798
4.8027701 0.720976 5.8836899
4.59093 0.85236597 6.1287398
4.6340599 0.81884402 5.9173002
4.36198 0.87017 5.9340501
4.5328598 0.85955501 6.0673099
4.6277399 0.83108199 5.8710499
3.7040401 0.78585601 4.6645498
3.7165 0.78598702 4.6697998
3.9762199 0.805632 4.6678801
4.0039001 0.80237299 4.6626902
4.5047798 0.86226201 6.06565
4.0826702 0.861601 5.3903198
4.2033601 0.85957903 5.6226401
4.4477301 0.83287501 5.6399899
4.3509202 0.862647 5.8401799
4.6554399 0.773417 5.2360101
4.6659298 0.774432 5.2747698
4.6292901 0.86587799 6.3011198
4.4395499 0.85510701 6.0643702
4.8018599 0.80541199 5.8729
4.4233699 0.86641002 6.00528
4.5450802 0.85646498 6.2518501
4.70366 0.82587498 5.9133701
4.6971898 0.76958197 5.3185601
4.5290399 0.86072302 6.06952
4.0234199 0.79723102 4.6688199
4.5625401 0.84639299 5.9478002
4.9472098 0.79025197 5.8691502
4.9428902 0.79159802 5.8703899
4.8934002 0.81217802 5.9795699
4.9076099 0.807028 5.94209
4.9530301 0.790591 5.86761
4.93364 0.79200101 5.87427
4.93472 0.79065901 5.8705802
4.92103 0.79155201 5.8731899
4.9233899 0.79046899 5.8750601
4.8908401 0.796152 5.87462
4.76963 0.63781101 5.8982301
4.9363899 0.79045099 5.8730402
4.1279202 0.78443801 4.6854
4.9244199 0.79075903 5.8709002
4.75209 0.83084899 6.1377602
4.8105102 0.81250501 6.0444102
4.6101198 0.874268 6.3705602
4.7413802 0.84517902 6.15905
4.1293001 0.78983498 4.6794901
4.8933902 0.793612 5.8744998
4.9008398 0.79302502 5.8743
4.90662 0.79256302 5.8737302
4.8906298 0.79968297 5.9007301
4.90766 0.79167902 5.8751202
4.8744798 0.713355 5.8790998
4.88937 0.79449499 5.8747501
4.8790598 0.713889 5.8794599
4.868 0.79676002 5.8750701
4.8344598 0.71687001 5.8823199
4.8345299 0.71614403 5.8857002
4.86448 0.79682797 5.8745599
4.8797598 0.79469103 5.8752999
4.7358799 0.83383203 6.1023402
4.7153301 0.85006303 6.16822
4.7576499 0.82832402 6.0764899
4.84763 0.71526402 5.8824501
4.8461599 0.71534097 5.8819098
4.66819 0.856929 6.2528601
4.6567998 0.859029 6.2669201
4.8613601 0.79765898 5.86058
4.8204799 0.81395698 5.9410601
4.8556099 0.79717702 5.8730402
4.8147001 0.71843398 5.8829398
4.8050599 0.63373101 5.8940902
4.8310599 0.80207199 5.8740602
4.80198 0.63293701 5.9033599
4.0924602 0.79037601 4.6804099
4.84587 0.799878 5.8744502
4.7969699 0.634094 5.89572
4.7904801 0.63410097 5.89464
4.78545 0.63556701 5.90207
4.7993798 0.63421297 5.8944201
4.8095298 0.71922499 5.8845401
4.8092899 0.814632 5.9307799
4.83041 0.71725798 5.8826699
4.8432899 0.80098403 5.8747401
4.8348899 0.80198097 5.8745899
4.8207798 0.71852702 5.8884802
4.8134699 0.71818 5.88519
4.6547198 0.76070797 5.2410798
4.7804098 0.63585103 5.8944402
4.7716999 0.63707399 5.89185
4.7841001 0.635683 5.9011402
4.8432002 0.79962099 5.8724198
4.5762701 0.84227097 5.93852
4.54704 0.85271102 6.0186601
4.5732198 0.84221298 5.9386001
4.8027301 0.80577201 5.8726101
4.8067999 0.80561602 5.87322
4.3031201 0.879125 5.9316502
4.7742801 0.76538801 5.35955
4.0232801 0.80115902 4.6573901
4.62919 0.86049902 6.2174501
4.5848498 0.85431302 6.07444
3.7448001 0.785083 4.6725998
3.7720101 0.78019297 4.6719398
3.88715 0.89778399 5.5650601
4.698 0.76841801 5.3169498
4.0823798 0.80967999 5.7122102
3.9611101 0.892488 5.5883598
4.6609902 0.81343597 5.74932
4.2690101 0.80901301 5.0999398
4.0359201 0.87885302 5.5800099
4.1202402 0.86258101 5.5112901
4.0474601 0.88784897 5.6805301
4.1603098 0.87660003 5.7072301
4.2312002 0.86004001 5.6223302
4.2010698 0.86701399 5.68401
4.1921802 0.87885398 5.7155199
4.3022599 0.84346801 5.5560002
4.5166101 0.853181 5.98388
4.1913099 0.87960601 5.7871199
4.2922802 0.853118 5.6349902
4.21873 0.85889798 5.8412099
4.2583699 0.83648098 5.8464899
4.2399302 0.87413597 5.8445201
4.2367802 0.87816799 5.8531399
4.3562002 0.84899098 5.6763101
4.3106198 0.863846 5.7470999
4.6504698 0.76217598 5.2329998
4.52842 0.85681999 6.02074
4.2903299 0.86850703 5.83951
4.2540998 0.88024998 5.8956699
4.39784 0.84308898 5.6690798
4.49863 0.86262 6.0692501
4.6684899 0.76822799 5.2781701
4.4484601 0.83231902 5.6378498
4.5360298 0.86476803 6.1539502
4.46207 0.84572798 5.6266398
4.3580298 0.83370501 5.5226202
4.3870602 0.855088 5.8059402
4.7021198 0.771424 5.3223701
4.3935599 0.85918599 5.8541498
4.3806901 0.863796 5.89258
4.7238598 0.77043498 5.3407202
4.4510398 0.84543997 5.7853398
4.3866901 0.863801 5.8983002
4.41394 0.858275 5.8589101
4.56671 0.828453 5.7473402
4.75103 0.76584899 5.3519301
4.4709301 0.84675598 5.79498
4.7138901 0.82533902 5.9723001
4.7627602 0.765576 5.3558898
4.5142899 0.83348 5.7737899
4.4372602 0.86466199 5.8754001
4.6795802 0.79283202 5.5170999
4.4156399 0.86106098 5.9643002
4.4339399 0.93074799 5.78934
4.4857702 0.85054499 5.8676
4.6212802 0.81307101 5.6700301
4.4758101 0.853122 5.8996301
4.7336502 0.81446302 5.8751502
4.4749398 0.854985 5.9210801
4.42448 0.86671102 6.0045199
4.4139099 0.870022 6.02777
4.5335898 0.84448802 5.8920102
4.5043302 0.850761 5.94732
4.6634798 0.81053102 5.7014599
4.5188799 0.84827203 5.9424
4.5809598 0.832425 5.8375802
4.4914699 0.85591203 5.9780102
4.3859701 0.84324598 5.6589298
4.6584702 0.81768602 5.75423
4.50456 0.85515398 5.99824
4.52003 0.85260701 5.9842401
4.2776599 0.86012399 5.69946
4.5834799 0.83968103 5.8987002
4.62604 0.830791 5.8713598
4.5942702 0.83610702 5.9242601
4.6687398 0.81920099 5.8235002
4.6715698 0.81939799 5.8235602
4.5622802 0.844028 6.0067201
4.7875299 0.72278398 5.8818002
4.6322799 0.83200198 5.9131899
4.5286899 0.86022902 6.0694699
4.6223402 0.83414698 5.9443598
4.6742201 0.82541198 5.8853502
4.5713301 0.85356802 6.0584602
4.5481801 0.86068398 6.1149402
4.7389998 0.81052297 5.8337202
4.6128502 0.84483802 6.0390701
4.6614499 0.83034402 5.97258
4.5573401 0.84055603 5.87146
4.5198002 0.87110198 6.19696
4.5143099 0.87306499 6.2046299
4.7832599 0.72215199 5.88621
4.7961001 0.72056001 5.8896699
4.74018 0.81818098 5.9145398
4.6293802 0.85109502 6.1118999
4.56423 0.86621398 6.2122202
4.5349698 0.87750298 6.3774099
4.8028302 0.80717897 5.8750701
4.74756 0.819242 5.9609599
4.8157201 0.80442798 5.8735499
4.7164998 0.83093601 6.0343399
4.7897601 0.81322199 5.9337401
4.7084098 0.83470201 6.0643201
4.5750899 0.87042999 6.27456
4.5411401 0.89182901 6.40207
4.7017102 0.76809502 5.3206
4.6003599 0.86814803 6.28056
4.5912199 0.87244397 6.30586
4.7375598 0.76778901 5.3473301
4.8243399 0.80296099 5.87427
4.6020298 0.825683 5.7926798
4.7488298 0.81688398 5.9463
4.5840902 0.85059398 6.0293698
4.47118 0.85523802 5.9208298
4.7739201 0.76268399 5.35675
4.69174 0.83257997 5.99615
4.6208401 0.86139202 6.22157
4.5531101 0.83636701 5.8523302
4.42067 0.86693001 6.00458
4.75108 0.82397199 5.94842
4.5317101 0.88375998 6.3302498
4.2869101 0.81754899 5.2288098
4.5743399 0.86991203 6.30404
4.6146898 0.83821201 5.9379802
4.4866099 0.868343 6.0897398
4.7189798 0.83117402 5.99965
3.7906201 0.77867901 4.6670098
4.5178199 0.83426499 5.77314
4.65031 0.84913099 6.1234002
4.8223801 0.803011 5.8740001
3.7425499 0.78023303 4.6627998
4.51652 0.83739799 5.7780199
4.6890001 0.83628201 6.0589199
4.6732402 0.84042698 6.0784798
4.5014801 0.86074698 6.0321698
3.90341 0.80736399 4.6716399
4.53966 0.873402 6.25108
4.0598798 0.865417 5.4102201
4.7471399 0.82181299 5.9270501
4.6519098 0.80987501 5.68994
4.7837801 0.763717 5.36098
4.1893201 0.86349797 5.6143699
4.24266 0.852727 5.55934
4.8029799 0.72083998 5.8844399
4.7936702 0.72201401 5.88238
4.7052598 0.82263899 5.9167199
4.7312899 0.814668 5.8747001
4.59622 0.85117799 6.0576
4.5487199 0.86111599 6.11796
4.7234902 0.76753801 5.3379598
4.3118601 0.868801 5.8589802
4.4924002 0.829404 5.6560102
4.3273702 0.87519801 5.9376798
4.4655199 0.83942997 5.7257199
4.7182798 0.76879299 5.3360701
4.6918201 0.82225102 5.85712
4.3599801 0.87077498 5.9329901
4.7745299 0.63677698 5.8939199
4.6767998 0.76973099 5.29175
4.7094302 0.83438897 6.06287
4.2572198 0.85439998 5.5872002
4.38901 0.87337202 5.9963002
4.53266 0.85899299 6.0585098
4.46418 0.85981202 6.0012898
4.5498099 0.83258402 5.8183298
4.6331301 0.79950202 5.5624499
3.68115 0.79341203 4.6732402
3.8198099 0.778772 4.67345
4.0141501 0.77334702 4.92524
3.9785199 0.89152801 5.6329799
4.0268798 0.87410998 5.4864001
4.1479602 0.82675397 5.2018199
4.00283 0.892326 5.7160101
4.1883998 0.82963002 5.32618
4.2684698 0.79861099 5.1040902
4.19384 0.84450001 5.38767
4.0739799 0.8919 5.7549801
4.27244 0.82376498 5.1740799
4.2950401 0.81508201 5.2358499
4.1932602 0.86406499 5.61443
4.26055 0.840325 5.4843502
4.21909 0.86152297 5.62114
4.3317699 0.821971 5.3055601
4.2186098 0.861184 5.6490698
4.19771 0.87414801 5.7259998
4.3199 0.82728702 5.4075999
4.3506999 0.823237 5.3042498
4.2871699 0.84480101 5.5177698
4.18011 0.885961 5.8926601
4.3069 0.84122503 5.5502501
4.3295202 0.83383298 5.5233798
4.3693399 0.82498997 5.4270501
4.1935201 0.88821697 5.9481502
4.2901101 0.85536897 5.7103601
4.2272201 0.86785901 5.9405799
4.3488102 0.838911 5.5666299
4.2522602 0.87444502 5.8404899
4.3592801 0.842848 5.6406898
4.4197202 0.823632 5.50453
4.3326302 0.857481 5.7372398
4.4386501 0.81559902 5.5486999
4.3378 0.86126399 5.7891102
4.3785 0.846641 5.7255602
4.3538499 0.85654497 5.7846098
4.39294 0.85523701 5.7842002
4.4513602 0.83847702 5.6410298
4.4558001 0.83661801 5.6426201
4.38797 0.85484201 5.82482
4.51373 0.821527 5.5214901
4.4664898 0.84094298 5.6299601
4.65168 0.84949499 6.1684399
4.5687099 0.80846202 5.4181499
4.52212 0.818335 5.6001801
4.59131 0.78952301 5.4549198
4.4512801 0.846241 5.8021202
4.43679 0.84721798 5.8455601
4.6830802 0.769458 5.3020501
4.4580002 0.84794998 5.83255
4.4921198 0.83656102 5.7688999
4.55375 0.81514102 5.63306
4.4885702 0.84363598 5.77455
4.4182601 0.86180198 5.9762998
4.56848 0.81684601 5.6209302
4.5399199 0.81802201 5.71211
4.4963698 0.84234101 5.7964301
4.5076299 0.83935398 5.8092499
4.4509001 0.85865498 5.9407101
4.5855598 0.81324297 5.6361299
4.5945101 0.81216598 5.6362
4.4356399 0.86623502 6.0018301
4.4120798 0.86098498 5.8744402
4.6662302 0.76746601 5.27665
4.7384901 0.76712 5.3477602
4.62675 0.80316901 5.6054802
4.5213099 0.84466797 5.8586001
4.7499499 0.76042002 5.3570399
4.61375 0.81131202 5.6589499
4.4709601 0.86303502 6.02356
4.7750301 0.75874001 5.3641901
4.5134802 0.85142702 5.94345
4.5732298 0.83161902 5.8284302
4.5549998 0.83946902 5.8731098
4.7900901 0.76296598 5.3603401
4.62749 0.81269801 5.7334499
4.5741601 0.83822101 5.8607402
4.8011899 0.76335502 5.3642302
4.7508702 0.78483999 5.51369
4.6262798 0.830055 5.7996702
4.59796 0.83305901 5.8678699
4.5386701 0.84863198 6.0065899
4.6006899 0.83275402 5.8878798
4.7097902 0.79845601 5.6760802
4.70432 0.798729 5.6995502
4.6690102 0.80866802 5.7771101
4.7038999 0.80677402 5.7091498
4.6511102 0.82618499 5.83567
4.5033498 0.87324703 6.16676
4.5220499 0.86673498 6.13585
4.5823302 0.85122401 6.0306001
4.6976099 0.814762 5.8204799
4.6319499 0.84151399 5.98001
4.6059899 0.84584498 6.0704098
4.57371 0.86197799 6.1630602
4.7971401 0.80745399 5.8737502
4.4806499 0.86195099 6.0297999
4.68154 0.83343297 6.08884
4.6904998 0.82567799 5.9661102
4.7535901 0.81789798 5.9861302
4.8094602 0.80745298 5.87569
4.4232502 0.84189099 5.7163901
4.8050299 0.80464399 5.8687701
4.29739 0.87908399 5.9692602
4.3617201 0.85421097 5.6807699
4.5455298 0.86462802 6.16366
4.5538402 0.85462201 6.0329299
3.6811399 0.78798199 4.6699901
3.9498899 0.81008399 4.6480098
4.0361199 0.79692 4.6679602
3.9597099 0.88479197 5.83391
4.0748501 0.88648099 5.7604799
4.1728001 0.85669601 5.4890199
4.2062001 0.84364003 5.4196601
4.5672898 0.84055001 5.93752
4.1606698 0.87107903 5.5801301
4.1884999 0.86305702 5.6199398
4.2765698 0.85795403 5.70397
4.2442002 0.85971802 5.8371701
4.7540202 0.82622999 5.9512801
4.52847 0.83725202 5.8139901
4.5946298 0.85207498 6.05901
4.54879 0.86263603 6.1180401
4.5193501 0.84715301 5.9012198
4.6353302 0.82387602 5.86098
4.5977302 0.83463001 5.92379
3.75249 0.780514 4.6705899
4.53128 0.858634 6.0605898
3.77613 0.77935898 4.66433
4.494 0.85408902 5.9796801
4.5527802 0.83598799 5.8520002
4.6634698 0.81241202 5.7008801
4.2047501 0.87165397 5.7273102
4.2526202 0.86158901 5.6791601
4.58354 0.82957798 5.8403902
4.6523199 0.76138598 5.2353201
4.3273201 0.87373102 5.9370198
4.7326899 0.838709 6.09128
4.6816902 0.851767 6.1926198
4.8336501 0.717493 5.8850999
4.8102899 0.63210303 5.8970499
4.81882 0.63353002 5.8950601
4.8210001 0.71885002 5.8849301
4.8212299 0.71820003 5.8889799
4.8239298 0.718216 5.8882599
4.8253899 0.71714902 5.8899102
4.6591201 0.85648602 6.2186098
4.6070199 0.86929202 6.3264298
4.6866398 0.848777 6.1507802
4.4672699 0.86741799 6.3838902
4.7875199 0.63546002 5.8961201
4.8034301 0.72013402 5.8884501
4.8215299 0.80328798 5.8752699
4.6273799 0.86431402 6.2973599
4.8235602 0.80188 5.8742299
4.8014798 0.72045499 5.8849802
4.7871699 0.72332698 5.8824201
4.5283699 0.87898099 6.3431602
4.5530701 0.85749203 6.3237
4.7923598 0.72127002 5.8878999
4.8115902 0.80431497 5.8748999
4.57056 0.88147801 6.3513498
4.2018099 0.87289602 5.7473302
4.6905499 0.768471 5.3095002
4.5229602 0.84616399 5.9008498
4.4763498 0.86082798 6.0345602
4.6335802 0.82943898 5.90907
4.6521101 0.80842799 5.6915698
4.4751501 0.84524697 5.79914
4.3886399 0.87282503 5.9985199
4.44385 0.85721302 5.9194298
3.6976199 0.79402798 4.6684799
3.75547 0.78252703 4.6648402
3.51985 0.940512 5.43958
4.4278102 0.85217297 6.0791202
3.8661699 0.81324601 4.7975702
3.9037099 0.79892498 4.6627302
3.67065 0.94563699 5.7497301
3.9602499 0.80619299 4.6533599
3.88516 0.87641197 5.2353601
4.0655799 0.79373097 4.6694498
3.87344 0.89792198 5.57725
3.9560599 0.883847 5.8288102
3.95995 0.88472098 5.8340101
3.97598 0.89177299 5.6556101
4.1269498 0.84444302 5.1977401
4.1413999 0.83922702 5.2971902
4.0757799 0.87764698 5.6407299
4.0356798 0.89583999 5.7801199
4.0475001 0.89409202 5.8555999
4.1351199 0.86704201 5.5692401
4.1792102 0.855443 5.4961901
4.1110902 0.88476902 5.7640901
4.1502099 0.87621403 5.7193499
4.1180301 0.89409399 5.89921
4.1598201 0.85404497 5.9282899
4.2846599 0.83683401 5.4295001
4.18467 0.856327 5.9175
4.2534099 0.86106497 5.6774101
4.25348 0.86493701 5.7185602
4.2150998 0.88333899 5.8733702
4.2214098 0.87053901 5.93716
4.3411298 0.85187799 5.5395198
4.2191901 0.88644999 5.9278302
4.26439 0.84486699 5.93154
4.4256401 0.82088602 5.41682
4.3709202 0.83550698 5.5924301
4.3945298 0.83661699 5.6087599
4.3991699 0.83579302 5.6094198
4.2695999 0.88082898 5.9332199
4.4389601 0.822671 5.5376101
4.30971 0.87182599 5.85776
4.3952799 0.84361798 5.66926
4.38623 0.84828699 5.7270899
4.3778 0.85290098 5.76824
4.4590702 0.82330501 5.5889201
4.3379402 0.86758202 5.8866701
4.4043198 0.84896702 5.7509899
4.4364901 0.84125203 5.7125301
4.3885102 0.85559797 5.8431702
3.8313999 0.77186799 4.65908
4.4323902 0.84478801 5.73949
4.3947401 0.85598499 5.84377
4.4660301 0.83428699 5.7343602
4.3593102 0.87242502 5.9778199
4.3538899 0.89553702 5.9491801
4.40239 0.86015201 5.8920202
4.37117 0.87039399 5.9650698
4.6935401 0.75945097 5.2343001
4.4122901 0.85857099 5.8748202
4.4272499 0.85525101 5.8461099
4.6779399 0.76880598 5.2940602
4.4000101 0.864438 5.9374199
4.4314399 0.85485601 5.8818402
4.5075698 0.83218902 5.7112699
4.6181698 0.80190498 5.45473
4.4821701 0.84085202 5.7874699
4.64464 0.78631002 5.42871
4.40098 0.87097597 5.9917102
4.7049999 0.765531 5.3228998
4.7097301 0.769844 5.3295698
4.7295499 0.76762998 5.3416901
4.6310301 0.80201298 5.5566902
4.46697 0.85786903 5.94033
4.5370302 0.83215302 5.79812
4.5280299 0.838673 5.8119302
4.7439599 0.76572102 5.34835
4.7448702 0.76849598 5.34972
4.75423 0.76581597 5.3534999
4.53441 0.83983499 5.8376799
4.4633999 0.86077499 6.0030599
4.6007199 0.82004601 5.70506
4.5321102 0.84266901 5.86099
4.5205402 0.84334099 5.8977599
4.6269798 0.81189299 5.6838002
4.7883501 0.76424199 5.3589602
4.2691698 0.84185201 5.45119
4.56879 0.839396 5.8698502
4.60849 0.825872 5.7989998
4.4991002 0.86054498 6.0314598
4.6047602 0.82680601 5.8375001
4.5448499 0.84913599 5.9935298
4.7119298 0.80044198 5.6742101
4.5157199 0.87248099 6.2042799
4.6304102 0.83010799 5.8713198
4.6234498 0.82821101 5.9045
4.65766 0.82232499 5.8643899
4.6791801 0.81784397 5.82833
4.6828899 0.81580698 5.8309302
4.5355802 0.86361402 6.13276
4.6659598 0.82571298 5.8936
4.72998 0.80775398 5.7678399
4.70295 0.82595301 5.8508902
4.56251 0.859882 6.1370502
4.6869898 0.82065898 5.8972301
4.4273 0.851565 6.0747399
4.4773102 0.84583998 5.85321
4.5281701 0.874291 6.2368999
4.6202698 0.84660602 6.0617599
4.6813302 0.82734299 5.9451799
4.57058 0.83422399 5.8656502
4.6261101 0.84586 6.0571098
4.5374098 0.87287498 6.2356601
4.5343599 0.84968901 5.95614
4.7588801 0.76687902 5.3555398
4.7035098 0.82246298 5.9156399
4.7002802 0.82336903 5.9367499
4.60818 0.837309 6.1301799
4.2943101 0.87801498 5.9700799
4.69385 0.82621002 5.9804902
4.6343098 0.84818298 6.0981898
4.6581802 0.84554601 6.0567799
4.5738201 0.86801302 6.2371001
4.7646599 0.81255603 5.8807802
4.3811998 0.86169398 5.8941798
4.56741 0.87287199 6.2723198
4.6900201 0.84104598 6.0416598
4.71068 0.82815099 6.0127401
4.6737199 0.84308398 6.0826001
4.65171 0.849042 6.1248698
4.7399101 0.81597298 5.9166298
4.6457601 0.85299402 6.1529799
4.6719098 0.84321499 6.1147399
4.6708398 0.83965802 6.0802002
4.2406602 0.88291001 5.9347501
4.2474098 0.88387698 5.9636202
4.6700201 0.81683499 5.8259602
4.6925001 0.83352202 5.9974198
4.3144102 0.86744702 5.85534
4.51509 0.88432097 6.30445
4.73487 0.81151098 5.8768201
4.7726002 0.765836 5.3600302
4.5695 0.87400299 6.2986202
4.6564898 0.76613998 5.2530599
4.6661301 0.76840699 5.2757802
4.7400799 0.76737797 5.3477302
4.43116 0.85230601 6.0697298
4.5578399 0.87411201 6.3189502
4.5757899 0.869133 6.2741098
4.5873399 0.81413299 5.63415
4.5743599 0.86939198 6.2720799
3.60219 0.93148702 5.4486699
3.6673901 0.91669798 5.4281702
3.7818999 0.87103599 5.9272099
3.77825 0.90302098 5.8779402
3.7223301 0.93993998 5.8302498
3.9265201 0.80433398 4.6947298
3.7834301 0.92185003 5.8961201
3.8645699 0.88939601 5.4289198
3.74103 0.96898901 5.5453901
4.01827 0.83607101 5.2645502
4.02876 0.84900898 5.0142002
3.9185901 0.90579599 5.7341399
3.9528601 0.88991898 5.5882001
4.1219602 0.80530399 4.7687802
3.9607699 0.89874899 5.638
4.01863 0.87218499 5.3526902
4.1367102 0.82179302 4.9398899
4.0350199 0.878492 5.5809498
4.1501698 0.82416201 5.2097301
4.1981902 0.79313499 5.2389202
4.0829401 0.86727703 5.4917302
4.1522002 0.83107102 5.2796102
4.1275601 0.85149002 5.44662
4.1956701 0.83120799 5.1094599
4.1342502 0.85193503 5.4773302
4.0908599 0.88403302 5.7125702
4.2498598 0.81599498 5.0850601
4.1271701 0.868442 5.6339502
4.1107402 0.87978703 5.6620402
4.16188 0.85419297 5.5155201
4.14185 0.87360197 5.6544199
4.2488098 0.82856798 5.3173699
4.2040601 0.85276699 5.4560199
4.3000598 0.81305999 5.2410798
4.1023698 0.90042698 5.9876399
4.2003198 0.86059302 5.6220999
4.2231102 0.85130602 5.5918798
4.2874699 0.83116603 5.3876901
4.2736001 0.83915901 5.4539299
4.2743201 0.83590299 5.4990001
4.2736301 0.83838701 5.5408702
4.24615 0.86015201 5.65236
4.2484398 0.84598303 5.72366
4.2323599 0.87460601 5.8092499
4.2901602 0.85262001 5.6434598
4.2094402 0.87866998 5.9741402
4.2323198 0.88176298 5.9092999
4.3317599 0.839441 5.6247001
4.31113 0.86331302 5.7493
4.40622 0.82668698 5.5078201
4.40097 0.83632302 5.6081901
4.3874502 0.848212 5.7270699
4.3810802 0.85157198 5.7697802
4.4271898 0.83424598 5.6558099
4.3245301 0.87581497 5.9805298
4.4260602 0.84532797 5.7393999
4.5411801 0.80451399 5.4450898
4.5174999 0.81285101 5.5149899
4.4061999 0.85609299 5.8545599
4.4773698 0.832771 5.6637201
4.4149699 0.85559398 5.86379
4.4686098 0.83767402 5.71668
4.4249001 0.86018097 5.9036798
4.6613698 0.76692402 5.2676001
4.5170999 0.82546598 5.6673999
4.6689601 0.76274502 5.28021
4.4867802 0.84094399 5.7614598
4.51828 0.82641202 5.6893902
4.4882598 0.84246302 5.7891798
4.5439801 0.82058901 5.6484098
4.51792 0.83218598 5.7747998
4.4700699 0.85812199 5.9204798
4.4294701 0.85225803 6.0745101
4.4302001 0.85270298 6.0782299
4.6029201 0.80886602 5.6312299
4.5479298 0.83028698 5.79495
4.6455402 0.79738301 5.54462
4.6117902 0.80976802 5.6609902
4.5214801 0.84779102 5.9008398
4.5050302 0.85027498 5.9474301
4.5702 0.82596898 5.7937899
4.6910701 0.78675097 5.4925699
4.67137 0.79758298 5.53866
4.55158 0.83476597 5.8519502
4.6935201 0.78621602 5.4929299
4.7506299 0.76682699 5.3529701
4.5915999 0.82156402 5.7801299
4.5185399 0.85153699 5.9848199
4.4983702 0.86217898 6.0378599
4.67169 0.79903102 5.6214299
4.7033801 0.79111898 5.5450501
4.6596599 0.80904901 5.67029
4.7354298 0.78412199 5.5102301
4.4532299 0.846816 5.8024502
4.5223799 0.82041901 5.5998902
4.5770502 0.83764899 5.9402599
4.6578398 0.82177001 5.7697701
4.6170702 0.83441401 5.96876
4.4850402 0.82248098 5.4924102
4.3972702 0.845496 5.74617
4.65765 0.84252501 6.0729799
4.3927398 0.84239 5.65344
4.6800599 0.82830399 5.87151
4.7463298 0.79951 5.7232299
4.7390499 0.80341899 5.7595
4.5741501 0.86177498 6.1641798
4.6379499 0.83919001 6.0314798
4.5413399 0.87259698 6.2523699
4.5378299 0.87777197 6.2813201
4.6210499 0.84873998 6.1017699
4.70784 0.81985497 5.9180598
4.7190599 0.82154 5.8987899
4.6279001 0.85163802 6.1133399
4.6353302 0.84860802 6.0996399
4.6347198 0.84848899 6.0980601
4.6829801 0.83005202 5.9445701
4.6981301 0.81350398 5.82025
4.54919 0.86169797 6.11553
4.5368199 0.86285698 6.1342402
4.5676899 0.85496497 6.0201898
3.7879701 0.77783197 4.66891
3.8796799 0.88388598 5.4304199
4.6641002 0.811441 5.70187
