# .PCD v0.7 - Point Cloud Data file format
VERSION 0.7
FIELDS x y z
SIZE 4 4 4
TYPE F F F
COUNT 1 1 1
WIDTH 101
HEIGHT 1
VIEWPOINT 0 0 0 1 0 0 0
POINTS 101
DATA ascii
0.407206 -0.84100598 2.84479
0.75089598 -0.85523099 2.6776099
0.71307802 -0.87859201 2.80773
0.34260899 -0.80829501 2.7519801
0.80204499 -0.87128299 2.7716601
0.77774 -0.8976 2.8089499
0.72181702 -0.85885501 2.7686801
0.60484803 -0.81050003 2.7665801
0.58258498 -0.801283 2.7447
0.39077201 -0.736314 2.7843001
0.55955499 -0.839405 2.76314
0.33201799 -0.80746698 2.7281301
0.39861801 -0.814138 2.7440801
0.53377903 -0.82938701 2.7474101
0.34153199 -0.806238 2.7527001
0.57901698 -0.843445 2.7663701
0.63555503 -0.85568202 2.7776101
0.64691299 -0.81383801 2.78631
0.38324299 -0.75123203 2.7705901
0.397351 -0.818196 2.7368901
0.53968602 -0.83283103 2.7430201
0.62657702 -0.83627898 2.7400301
0.32554901 -0.80599701 2.73153
0.61857897 -0.842628 2.75052
0.600353 -0.78051001 2.73682
0.63529003 -0.84201998 2.7406499
0.39911899 -0.818977 2.74651
0.551525 -0.83474201 2.7467101
0.60846102 -0.83673501 2.7404399
0.57859802 -0.82855499 2.7604599
0.34704101 -0.72794199 2.75702
0.69900298 -0.73354399 2.72596
0.64498198 -0.84290898 2.7362199
0.64356798 -0.83783197 2.7469299
0.37457699 -0.809196 2.7384
0.611377 -0.84057403 2.7454901
0.70814699 -0.83396399 2.74912
0.69955802 -0.82250297 2.7425001
0.37091199 -0.81409401 2.74437
0.415683 -0.82023299 2.75015
0.612315 -0.84391999 2.7520001
0.69484299 -0.84979701 2.7481599
0.741099 -0.85132998 2.73207
0.61995 -0.81354702 2.7490201
0.73415601 -0.84396201 2.7462299
0.386484 -0.81812102 2.7569499
0.57955199 -0.83912998 2.75244
0.63741899 -0.846066 2.7485199
0.69297701 -0.86173397 2.7513101
0.69705999 -0.84501803 2.7433
0.60667199 -0.79843402 2.75089
0.55287898 -0.84029502 2.75529
0.64851701 -0.85188901 2.7544301
0.70820999 -0.86121601 2.75576
0.72605997 -0.85848302 2.7564099
0.61223 -0.80191702 2.7495501
0.89535397 -0.881504 2.75769
0.78671598 -0.86801499 2.7537999
0.62496102 -0.85145301 2.7553799
0.71204799 -0.86191797 2.75489
0.88243198 -0.87988299 2.7539001
0.59493399 -0.78757602 2.7411699
0.73998803 -0.79364699 2.7516799
0.665052 -0.82667702 2.75665
0.738469 -0.86175799 2.7541699
0.60277402 -0.780595 2.7387099
0.74532402 -0.81961501 2.7414
0.61017603 -0.85296702 2.75699
0.640118 -0.857171 2.7556
0.74346 -0.82838202 2.75526
0.75910699 -0.85159701 2.7534101
0.54129499 -0.83650798 2.75896
0.85143101 -0.87805301 2.7560201
0.62902999 -0.85349602 2.7558899
0.53919399 -0.84325701 2.75896
0.55984598 -0.84849697 2.75633
0.65472901 -0.85783201 2.7546301
0.85693997 -0.881814 2.7536199
0.74291301 -0.832515 2.7534001
0.67504501 -0.85938603 2.7547901
0.53013301 -0.84613401 2.75596
0.578821 -0.787099 2.7339201
0.83115202 -0.878465 2.75402
0.57675302 -0.849554 2.7543499
0.32418901 -0.82109201 2.7603099
0.73196101 -0.811028 2.75332
0.55290997 -0.84126502 2.7577801
0.65600199 -0.85410899 2.7546301
0.74235398 -0.82052302 2.74635
0.61740601 -0.85149801 2.75653
0.66868299 -0.86589801 2.7560401
0.60949099 -0.78387201 2.73739
0.83650303 -0.87635499 2.7531199
0.74203199 -0.79230398 2.7540801
0.58802301 -0.792211 2.7413599
0.52228898 -0.84346098 2.7556901
0.71995503 -0.86336398 2.7553599
0.54012102 -0.84287101 2.7571399
0.35407901 -0.70682502 2.7613299
0.37594599 -0.72680998 2.75701
0.915286 -0.47364801 2.87589
