# .PCD v0.7 - Point Cloud Data file format
VERSION 0.7
FIELDS x y z
SIZE 4 4 4
TYPE F F F
COUNT 1 1 1
WIDTH 215
HEIGHT 1
VIEWPOINT 0 0 0 1 0 0 0
POINTS 215
DATA ascii
3.5520501 0.845824 6.2737799
3.6454 0.86387098 6.14573
3.5578301 0.856812 6.2575898
3.6068001 0.67459899 6.19872
3.53898 0.73704302 6.2796698
3.6180899 0.73342001 6.1988201
3.5480001 0.73455799 6.24719
3.6096001 0.72538799 6.2066498
3.5511799 0.780563 6.2545099
3.6231101 0.84711599 6.21736
3.6179199 0.80015999 6.1982198
3.58517 0.65344602 6.26442
3.6182799 0.886428 6.2409801
3.61937 0.91935199 6.2437601
3.58514 0.72748601 6.28022
3.5971799 0.84247702 6.2690701
3.6027 0.76537001 6.2323699
3.6119499 0.83387202 6.23141
3.5559299 0.62566602 6.15557
3.58585 0.83278298 6.1581802
3.61411 0.82183301 6.2221799
3.6196001 0.86860001 6.2147698
3.5816 0.69438499 6.2452998
3.61115 0.91554803 6.2244101
3.59535 0.76363301 6.2363801
3.59252 0.929259 6.1458702
3.6039701 0.84352398 6.2323999
3.5842199 0.871988 6.1620202
3.5822699 0.59979498 6.21908
3.5903699 0.82792503 6.2520499
3.60044 0.84709197 6.12605
3.58003 0.84176099 6.2652402
3.57213 0.60840702 6.2178602
3.5857501 0.856718 6.2451501
3.59638 0.83724302 6.1266098
3.57845 0.83033699 6.26582
3.60006 0.84093499 6.1258798
3.58374 0.66096997 6.2540102
3.6157899 0.86449403 6.0753398
3.60219 0.90187001 6.2971601
3.6010301 0.84633702 6.0971899
3.58495 0.64957702 6.24717
3.58833 0.79441899 6.2291002
3.60412 0.844118 6.2106299
3.5966301 0.86388397 6.1442099
3.58059 0.66278201 6.2220802
3.5899999 0.90474099 6.1526198
3.5846901 0.80941802 6.1395302
3.60111 0.77868003 6.2016401
3.5827401 0.68815702 6.2172499
3.58094 0.68639898 6.2137198
3.58706 0.81385303 6.1376901
3.58548 0.90431798 6.1648798
3.58125 0.80684 6.1419201
3.58479 0.621517 6.1953402
3.58884 0.68073899 6.2062302
3.5860701 0.65892899 6.2047701
3.5613599 0.62634403 6.1318402
3.5839601 0.63389802 6.2051902
3.60622 0.78570598 6.1886902
3.60343 0.74123102 6.1896801
3.6037099 0.914415 6.1414199
3.5920801 0.84698099 6.1451001
3.5994899 0.746984 6.1995201
3.6025801 0.84689599 6.1364102
3.5981901 0.71901 6.1939001
3.60481 0.86198199 6.13061
3.5851901 0.53774399 6.1855001
3.6019199 0.692334 6.2051601
3.6115899 0.75232702 6.1925602
3.6168001 0.79421502 6.1968098
3.6101999 0.85088599 6.0967698
3.59867 0.65610999 6.1946602
3.6268799 0.87830901 6.1830502
3.6303899 0.91144001 6.1943998
3.6065199 0.86755401 6.0970502
3.6064301 0.71614599 6.1886001
3.5948501 0.631459 6.2080798
3.59851 0.67070103 6.1905899
3.6037199 0.68222499 6.1888199
3.6148901 0.76291102 6.1820998
3.6164501 0.79738802 6.1863399
3.5903101 0.798711 6.1230102
3.59744 0.82519603 6.1168699
3.6334 0.91344398 6.1852598
3.6367099 0.94645703 6.1808901
3.5829101 0.54210401 6.2034602
3.5938699 0.63005501 6.1990499
3.6126101 0.698026 6.1848102
3.6180601 0.75651503 6.1740599
3.5940199 0.87534899 6.1468401
3.58775 0.52034402 6.18888
3.59514 0.89255202 6.14504
3.60145 0.856363 6.1038599
3.6380501 0.93333501 6.1772199
3.59798 0.83768302 6.11059
3.5543201 0.57571697 6.1466498
3.5989499 0.63310999 6.1824899
3.6061699 0.695436 6.18715
3.60955 0.71806502 6.184
3.61234 0.73818702 6.1825299
3.5941 0.60027599 6.1867599
3.58248 0.79954302 6.1213102
3.61797 0.77559298 6.1768799
3.6149399 0.77271801 6.1759801
3.6135199 0.73012298 6.1794
3.6065099 0.699965 6.1775699
3.58621 0.54765302 6.2015901
3.59742 0.62562299 6.18226
3.56078 0.62257701 6.1384301
3.6113701 0.79348803 6.1964302
3.6039701 0.702169 6.1957598
3.5859001 0.51997101 6.2013102
3.5915101 0.55795997 6.1957798
3.58973 0.55825698 6.1868901
3.6284699 0.87909901 6.1784801
3.60005 0.85883498 6.1068001
3.6036401 0.88154 6.1011
3.60513 0.87058097 6.10607
3.61292 0.74564397 6.1827202
3.6085701 0.74526799 6.18542
3.6007099 0.668558 6.18295
3.6274099 0.86985898 6.1884098
3.61181 0.76699901 6.1830401
3.6004801 0.68083698 6.1860199
3.6015501 0.72241598 6.1894202
3.59671 0.821437 6.1300201
3.60287 0.86390001 6.1252599
3.6022401 0.70843101 6.1880898
3.6187699 0.75438702 6.18296
3.6071 0.73184901 6.18928
3.5957999 0.65570199 6.1932902
3.59149 0.62620401 6.19031
3.59284 0.84392601 6.14713
3.5899799 0.83033502 6.1466799
3.5955901 0.86446601 6.1476402
3.6015699 0.89691597 6.1475401
3.5950501 0.84438902 6.15869
3.59723 0.88573998 6.1493502
3.5962501 0.85582101 6.15517
3.5539899 0.70137697 6.1228199
3.59167 0.83290303 6.1561599
3.5506101 0.75736302 6.1030798
3.5938799 0.84838599 6.15098
3.59828 0.86262399 6.15134
3.6126699 0.932482 6.1540098
3.5920601 0.83070201 6.1524701
3.61865 0.69965899 6.1620598
3.59692 0.83746201 6.1536298
3.5991199 0.78049499 6.1707802
3.59657 0.83776897 6.1553102
3.59673 0.87958699 6.1557002
3.5950999 0.84722 6.1577101
3.5982101 0.86300999 6.15662
3.5990801 0.86448097 6.15486
3.5946801 0.85348898 6.1547699
3.5945201 0.86343801 6.1547198
3.5955701 0.86653101 6.1543398
3.5722699 0.56682497 6.12328
3.5925701 0.85391003 6.1531401
3.5313699 0.84985203 6.1366501
3.60237 0.84561002 6.12361
3.60324 0.855775 6.1242399
3.6001999 0.91649902 6.1215601
3.5857 0.93009102 6.1227899
3.5998299 0.84281403 6.1246901
3.6092401 0.92439902 6.1220398
3.60074 0.93195599 6.1217999
3.6024499 0.89947301 6.1246901
3.6098599 0.91016197 6.1228499
3.60834 0.73139602 6.1669402
3.6020899 0.75145203 6.1726298
3.6048501 0.754273 6.1696501
3.61041 0.75610799 6.1658702
3.6059101 0.76627201 6.1707001
3.6013601 0.77633202 6.1715498
3.6012399 0.78929299 6.1708999
3.6036 0.73117399 6.1693401
3.6037099 0.74487901 6.1714902
3.61327 0.75699598 6.16396
3.6056199 0.768354 6.1696601
3.60853 0.77748901 6.1652002
3.60532 0.78978598 6.1686001
3.6115799 0.80057198 6.1661401
3.60355 0.78273797 6.1724401
3.6103401 0.73401397 6.1672502
3.6068799 0.75441802 6.16751
3.60133 0.76042199 6.1690798
3.6217201 0.79218501 6.1620302
3.6178701 0.79621798 6.1661801
3.6199501 0.78432202 6.16294
3.60674 0.74281102 6.1680598
3.6126001 0.76722002 6.1676402
3.6096699 0.770037 6.1658802
3.6048501 0.74880999 6.1676402
3.6170399 0.78120601 6.1642098
3.6240599 0.78257102 6.16362
3.6414199 0.81944299 6.1546202
3.61182 0.750413 6.1688099
3.6077499 0.75348598 6.16752
3.6096799 0.76038897 6.1668301
3.6221399 0.79142499 6.1623998
3.6058199 0.72212303 6.16855
3.6080201 0.726215 6.1668801
3.6102901 0.76761502 6.1644101
3.6248701 0.79657799 6.1588502
3.63115 0.80018401 6.1591902
3.6382899 0.80513 6.1564398
3.6526101 0.81106198 6.15275
3.61342 0.76311398 6.1667299
3.6477499 0.81950498 6.1519299
3.5936501 0.94092703 6.1255798
3.60689 0.91003001 6.11866
3.5090301 0.986606 6.1175299
3.6077099 0.72903401 6.1675901
