# .PCD v0.7 - Point Cloud Data file format
VERSION 0.7
FIELDS x y z
SIZE 4 4 4
TYPE F F F
COUNT 1 1 1
WIDTH 1614
HEIGHT 1
VIEWPOINT 0 0 0 1 0 0 0
POINTS 1614
DATA ascii
1.8085099 0.235762 4.6061802
1.81863 0.206912 4.6090598
2.19858 -0.019455001 4.6290002
3.1688399 -0.074851803 4.7283201
2.75805 0.071856201 4.6098299
2.8156199 0.079255499 4.6366301
3.2172699 0.087672196 4.6358299
2.4449201 0.141406 4.62009
2.7748499 0.18559 4.6315899
1.76994 0.168155 4.6269598
1.79547 0.18195499 4.60919
2.05882 0.22374099 4.6048799
1.87936 0.253712 4.62047
3.8292899 0.441787 4.5994401
1.80246 0.27599001 4.6121602
1.80576 -0.47327399 4.7003102
2.1189201 -0.45150799 4.7068901
2.6654899 -0.55395001 4.6972198
2.35849 -0.45332599 4.6802301
3.5653999 -0.719015 4.6968899
2.7690899 -0.51264602 4.68574
2.8309801 -0.448672 4.6895599
2.5941601 -0.116989 4.6529899
2.52403 -0.082157299 4.6231198
2.1889501 0.0102093 4.6349001
3.81545 0.27705199 4.6140499
3.90517 0.39299601 4.6104002
2.0736201 0.148395 4.6132302
1.8089 0.140871 4.6192498
1.91474 0.250999 4.6161499
2.5136499 -0.52119797 4.69136
3.1302299 -0.63657898 4.7163
3.2000899 -0.62999099 4.7025499
3.7247901 -0.651604 4.7005801
2.83464 -0.42983001 4.6919098
3.00598 -0.30263501 4.6564898
2.17819 0.077879101 4.63235
1.71979 -0.55324799 4.6824598
1.81019 -0.47345501 4.70963
1.78757 -0.41400701 4.66536
2.5067699 -0.63737601 4.69312
2.71257 -0.68796498 4.7032099
2.6965499 -0.63845903 4.6451898
2.89975 -0.707573 4.6980901
2.7731099 -0.64384198 4.6513901
3.1981101 -0.74539101 4.7150798
3.6921699 -0.87436497 4.72189
2.7537 -0.57767099 4.6891198
1.79865 -0.30750501 4.6809301
3.7203901 -0.69646102 4.70467
2.82603 -0.47151399 4.6838298
3.41066 -0.54372698 4.7122302
2.8648 -0.402987 4.6925602
3.3501899 -0.44639599 4.68009
3.7032101 -0.41547099 4.6717
2.8618 -0.194594 4.6595802
2.8501699 0.0115362 4.6342502
3.44807 -0.136305 4.6476798
3.1561401 -0.106557 4.6572099
2.2845299 -0.0040765102 4.6367402
3.51035 -0.0318643 4.6592598
2.19944 0.00032970001 4.62674
2.31264 0.040134601 4.6356301
3.37305 0.080576003 4.62468
3.84759 0.093533099 4.64007
2.36836 0.110705 4.6143198
2.8545699 0.135647 4.6462498
2.4748499 0.13651399 4.6199002
2.33055 0.13999499 4.61939
3.8856299 0.217005 4.6309299
2.0253601 0.150464 4.60428
3.1978199 0.204833 4.5725098
1.79952 0.15028299 4.6202002
2.16014 0.186754 4.5697598
1.7909499 0.17792 4.6124802
1.82613 0.204107 4.5964699
1.77692 0.225253 4.62115
2.11869 0.27564201 4.6115599
1.80988 0.246592 4.6042399
1.78601 0.26476499 4.6175399
1.78635 -0.39617801 4.6602702
2.5208199 -0.62598598 4.6996598
2.38065 -0.52386898 4.6858602
2.6768401 -0.61220801 4.6967001
2.0898299 -0.396633 4.6752901
2.65448 -0.55148101 4.6937799
2.11201 -0.39530599 4.6715398
2.35448 -0.43890601 4.6905098
3.30339 -0.350106 4.7109098
2.9738801 -0.289399 4.6753201
1.78534 0.27556801 4.6181402
3.35446 -0.234797 4.6520801
1.83585 0.249999 4.59902
2.71773 0.124958 4.62432
3.8659599 0.32499099 4.6227198
2.1853299 0.22767 4.6042299
1.83592 0.220644 4.61444
2.1859901 -0.48677701 4.67557
2.14031 -0.46340001 4.65697
2.80653 -0.52551401 4.6923399
3.15957 -0.60847503 4.6703701
2.7288599 -0.477375 4.6796098
2.82145 -0.34618801 4.7421198
2.3601501 -0.505898 4.7256999
2.67028 -0.481105 4.6887298
2.61906 -0.23219299 4.7353001
2.41223 -0.529333 4.71632
2.7600801 -0.114068 4.6739898
2.30933 0.076189101 4.7385702
2.2088399 -0.042270299 4.6572299
2.8224399 0.0219451 4.6686602
1.8709199 -0.48603299 4.71773
1.88936 -0.45319101 4.7238698
1.84392 -0.43213299 4.7175698
2.0911901 -0.50563002 4.7087102
1.8672 -0.36423901 4.6933699
2.1349399 -0.50159103 4.7066698
1.78916 -0.611341 4.6868501
2.19175 0.220778 4.6154299
2.3535199 -0.057553101 4.6601701
2.0710101 0.045442302 4.6410999
2.71751 0.043163098 4.6554399
2.27109 0.15467 4.6322198
2.19348 -0.42320901 4.6863399
1.79256 0.188702 4.6374402
2.7447801 0.23545399 4.6379199
1.7895 0.131341 4.6458998
2.3498001 0.0327399 4.6427999
2.3257301 0.113429 4.6430802
1.8394901 -0.310729 4.7062702
1.73571 -0.557823 4.6933198
1.7326601 -0.53721303 4.69278
2.0082099 -0.492874 4.6729202
1.73761 -0.36777899 4.6800699
1.7989 -0.38898501 4.6736598
2.7488699 -0.69974601 4.7186599
1.79065 -0.35102999 4.62638
2.71749 -0.64402699 4.7026401
1.9211 -0.363307 4.6362
2.20204 -0.454905 4.6742401
2.02356 -0.386888 4.6659799
3.2671499 -0.75811303 4.7170701
2.6826501 -0.57174999 4.6869998
2.4974401 -0.50836098 4.6770902
3.6728699 -0.85367799 4.71064
2.12779 -0.39384499 4.6693001
2.2125299 -0.418084 4.6689
3.3044901 -0.71140897 4.68891
1.88914 -0.30344 4.6613302
2.66219 -0.506926 4.6847901
3.0884199 -0.62155497 4.69346
2.6705999 -0.482714 4.6731
2.7562399 -0.50682497 4.6937599
2.13819 -0.32417801 4.6356301
3.0437901 -0.53979999 4.6862602
3.2116399 -0.57031602 4.69489
3.2797201 -0.57418501 4.6826901
2.65941 -0.40893301 4.6333499
2.8147399 -0.412714 4.678
3.3269401 -0.51776499 4.6683402
2.6554599 -0.36310399 4.67767
2.84004 -0.399984 4.6786799
2.96332 -0.405853 4.6816902
2.6907499 -0.30289501 4.6787601
3.1523499 -0.30660999 4.6586399
3.7392299 -0.377354 4.66958
3.7503099 -0.31562001 4.6650901
2.7976501 -0.184515 4.63834
3.3242199 -0.242585 4.6478701
3.7353201 -0.212155 4.6457
3.40661 -0.172721 4.6419401
2.9458599 -0.109516 4.6637301
3.3847499 -0.047703601 4.6252298
3.0612099 -0.016210699 4.62819
2.1902201 0.0224868 4.6296802
2.85588 0.016759099 4.6289101
2.0661399 0.0431385 4.6265302
2.9503701 0.060407199 4.6420798
2.2449 0.120415 4.6209602
2.9858799 0.159201 4.5942402
2.4461901 0.14235801 4.6212201
1.77336 0.116686 4.6286201
2.8561101 0.186803 4.6256599
1.77386 0.14512099 4.6263099
1.80116 0.148305 4.6122799
1.89245 0.16022 4.6094799
1.79746 0.17153201 4.6170602
2.1024401 0.211392 4.6142001
2.4385099 0.25187501 4.6130199
1.88051 0.20212901 4.5859699
1.8756599 0.204639 4.60992
2.09266 0.241695 4.5943599
1.77775 0.207174 4.6188698
1.8724999 0.21906599 4.6147099
1.89735 0.233913 4.5966902
1.8036 0.225449 4.60987
1.85273 0.25211 4.6073499
1.8059 0.25938001 4.60888
1.85536 0.28206301 4.6111102
1.7423199 -0.56055701 4.6879401
1.79015 0.27982599 4.6168399
2.4365001 -0.61748701 4.6735101
1.73719 -0.36237001 4.6753802
2.4988401 -0.61015803 4.6847401
1.8085099 0.24578699 4.6041999
2.3002501 -0.49168599 4.6686502
3.6043799 -0.90535402 4.6997099
2.2999899 -0.48552099 4.6760502
2.1865399 0.2147 4.5990901
2.4969299 -0.50055701 4.6775398
2.3455501 -0.43604499 4.67905
2.4356 -0.43035999 4.6736598
2.73013 0.043733999 4.6364598
3.59516 -0.54927498 4.6680698
2.27476 0.01382 4.6307802
2.5502601 -0.010282 4.6452298
2.19277 -0.023167601 4.6399598
3.74475 -0.112963 4.6441102
2.97385 -0.292889 4.6756301
1.73717 -0.371685 4.6746602
2.0616801 0.317056 4.6173501
3.1247301 -0.39425999 4.6634402
3.81111 0.40695399 4.5907602
2.66521 -0.554775 4.65658
2.6549301 -0.54314601 4.6538301
3.6912701 -0.84717798 4.7161899
3.7752099 0.26566899 4.5964599
2.31756 0.109377 4.6212802
2.0099101 -0.38633901 4.6644101
2.18889 -0.034220502 4.64568
3.8173599 0.21875601 4.6157098
2.46457 0.139852 4.6249199
1.73954 -0.56301701 4.6915698
2.04391 0.30250201 4.6082301
1.74332 -0.37291199 4.6780901
1.97537 0.32061401 4.6175098
2.6936901 -0.61099899 4.6801901
3.6677301 -0.90737599 4.72262
1.96539 0.30821699 4.6059198
2.21035 -0.45109999 4.66716
2.50141 -0.50572902 4.68573
2.6781099 -0.55580401 4.6974902
2.22804 -0.42165399 4.6705899
1.8836401 -0.30374199 4.6542101
3.11394 -0.62245202 4.6929402
3.22996 -0.62900001 4.6839099
2.5237601 -0.44515601 4.6750002
3.7012501 -0.65666199 4.69028
2.82231 -0.386823 4.6713099
3.7420599 -0.54846901 4.6845498
2.1960299 0.020847499 4.6326599
2.9607401 -0.27472499 4.6673102
3.16377 -0.30120099 4.6623001
3.7643199 0.0356136 4.6269798
3.211 -0.23174299 4.66013
3.7646699 -0.277639 4.66292
3.3931501 -0.18049601 4.6448398
3.0011101 -0.142176 4.6817398
3.25524 -0.162927 4.6897502
3.7426 -0.092989199 4.63624
2.2821701 0.0182318 4.6384702
2.19666 0.034886699 4.6272101
2.0866301 0.053471901 4.6496301
2.30077 0.053328 4.6415801
2.96966 0.0584029 4.6607399
3.4089701 0.073031798 4.6258001
2.7579501 0.106819 4.6219802
2.3710101 0.107731 4.6126499
2.7400999 0.13247 4.6280699
2.2327001 0.13119 4.6220999
2.3418701 0.142831 4.6204901
3.82125 0.100047 4.6317101
2.0574501 0.144455 4.6060901
2.93993 0.22852901 4.5893998
2.7427299 0.221835 4.619
1.78003 0.15928701 4.62782
1.78225 0.18011101 4.6254601
1.7832299 0.200901 4.6224399
3.8213 0.415719 4.5955801
2.3190601 0.112677 4.62428
1.81704 0.21604399 4.6085701
2.41992 0.28244001 4.6226001
3.7943399 0.16564301 4.6192598
1.91899 0.237298 4.62604
1.8522201 0.27847299 4.61484
1.81014 0.246539 4.60782
3.4391 -0.48129201 4.6875901
3.23615 -0.41145101 4.6835999
3.6737599 -0.93123299 4.69631
2.37288 -0.52172601 4.6719499
2.4791701 -0.540241 4.6901698
3.0469 -0.68657202 4.6870098
2.34922 -0.45513499 4.6757202
3.2446001 -0.577344 4.6818299
1.9145 0.24297699 4.6185498
3.83394 0.33813101 4.6037898
1.90415 0.15508699 4.5883999
3.53742 -0.41240501 4.6714702
2.1960101 -0.0274907 4.6423001
3.77881 0.26979899 4.5999298
3.1519301 -0.30972901 4.6581702
3.39029 0.21077 4.6112499
1.75055 -0.61863798 4.70789
1.73884 -0.60567802 4.7088599
1.75352 -0.613509 4.7171302
1.7528 -0.61299503 4.7129998
1.72864 -0.54776901 4.6954398
1.73208 -0.54309702 4.6979799
1.73335 -0.54410601 4.69208
2.1981101 -0.44284099 4.6719298
1.78104 -0.56736797 4.697
1.74734 -0.532444 4.6919999
2.1937001 -0.52579999 4.7609301
1.7743599 -0.29166099 4.6724501
2.7764499 -0.69659001 4.7343001
1.83802 -0.30265701 4.6731901
2.1261101 -0.39390901 4.6546302
2.23013 -0.43373901 4.6662102
2.5069799 -0.53979498 4.69311
2.31757 -0.461456 4.66921
2.6786599 -0.57662398 4.6945801
2.97755 -0.68698502 4.6695499
3.08935 -0.71022499 4.6789999
2.3390999 -0.43400201 4.6784301
2.36449 -0.43696401 4.6842198
2.75668 -0.57519501 4.6796498
2.4495001 -0.46075401 4.6672802
2.6701801 -0.50122899 4.6897898
2.76511 -0.532498 4.6818099
3.4279599 -0.72940803 4.7117901
3.0151701 -0.52862799 4.6952901
3.2492299 -0.59649497 4.6693802
2.9861701 -0.48663399 4.6768198
3.2534399 -0.55013198 4.6697302
3.66734 -0.66134697 4.6780701
3.4063101 -0.17882299 4.6466098
2.9324601 -0.42242801 4.6908598
2.9151101 -0.40202999 4.6686101
3.0673499 -0.42973799 4.6930199
3.46889 -0.51513702 4.6480398
2.92714 -0.36399701 4.6637502
2.9884501 -0.377536 4.6671801
3.4563 -0.48116699 4.6645999
3.7375901 -0.497731 4.6811299
2.93875 -0.30094799 4.6419702
3.4814999 -0.40382099 4.6595502
2.9680901 -0.297921 4.66749
3.15241 -0.22365101 4.6624098
3.3622401 -0.24295799 4.6558499
3.3754699 -0.23489401 4.6494198
3.2235601 -0.205741 4.64606
3.73296 -0.27031299 4.6539402
1.76231 -0.0061002201 4.6370401
2.7158501 -0.112173 4.6340899
3.41784 -0.190092 4.6497698
2.28192 -0.047067702 4.6377602
2.7279501 -0.076726504 4.6375799
2.18818 -0.0220636 4.6359901
2.2235 -0.0251489 4.63727
2.28125 -0.0190812 4.6312799
3.2383201 -0.086096197 4.6388001
2.36307 -0.0138303 4.62707
2.28776 0.0141563 4.6389999
2.19626 0.024468901 4.6284099
3.4614601 -0.041819401 4.6382699
2.08147 0.044909898 4.6301599
3.4560399 -0.0110358 4.6364002
2.8253 0.037785899 4.6384902
3.02174 0.049065199 4.6444998
2.7271299 0.062474798 4.6272998
2.21661 0.076439701 4.6052699
2.7253101 0.077101998 4.62639
2.1853001 0.097777799 4.6214399
2.3427501 0.109727 4.62149
3.7734201 0.13526499 4.6115499
2.7384 0.13557 4.6078801
1.99401 0.13725799 4.6128802
2.0947499 0.14098699 4.6107502
2.83038 0.18375599 4.61446
3.2564001 0.202806 4.6015701
3.8027201 0.227405 4.60501
1.77951 0.15099201 4.6265802
1.89483 0.161808 4.60183
2.27021 0.18600699 4.6052198
3.8367 0.28692299 4.6112499
1.78145 0.165528 4.62749
1.78088 0.187023 4.62287
1.97561 0.20632 4.6182399
1.80566 0.193132 4.6177702
1.92366 0.20520499 4.60537
3.8394599 0.40268099 4.5869999
1.8264199 0.21032999 4.6161199
1.8312 0.21089099 4.6154399
1.7840199 0.208966 4.6243701
3.8565199 0.462576 4.58955
1.78409 0.212575 4.62431
1.80366 0.222358 4.6192298
1.88293 0.256767 4.6080098
1.8817 0.264534 4.61099
1.8408099 0.261639 4.6163902
1.7848099 0.25582999 4.6234899
1.78449 0.25574601 4.6197
1.81437 0.27568099 4.61375
1.99819 -0.486761 4.6673198
3.4570401 0.0395694 4.6156502
2.1905601 -0.529661 4.7644901
2.5069201 -0.63896298 4.6887898
2.7669499 -0.68543398 4.70051
2.29108 -0.48589301 4.66327
1.90737 0.24033999 4.6192698
2.9331701 -0.58755898 4.6943002
3.23944 -0.68844599 4.6682601
3.03776 -0.53516299 4.69419
3.2506399 -0.58718503 4.6883001
3.67045 -0.70671201 4.6905599
1.80285 0.17446101 4.62011
3.09216 -0.49782601 4.67594
2.8034101 -0.39821899 4.6700301
3.43432 -0.54745698 4.6902399
3.45328 -0.54184097 4.69524
2.8745401 0.19377901 4.6361599
1.80761 0.14151999 4.6206002
2.7855301 -0.33265099 4.66255
3.7026701 -0.53563201 4.67344
3.7636499 0.044476502 4.6221399
2.32952 -0.53647399 4.6937399
2.2014501 0.066341802 4.62988
1.85096 0.27872801 4.6147699
2.6891 -0.62451398 4.6852002
1.8257101 0.221525 4.6153302
2.7701199 -0.50357401 4.6904998
3.85518 0.41604099 4.6015601
2.9393301 -0.49837601 4.7027602
3.8276899 0.33229399 4.58569
2.20309 0.160733 4.6076102
2.0523701 -0.47797799 4.6884599
2.11215 -0.50405997 4.6944699
2.1279099 -0.50821698 4.6909499
3.2958901 -0.42049101 4.67941
1.92355 -0.381574 4.6757498
2.37848 -0.027171001 4.5987902
2.6896999 -0.56288999 4.6725702
3.6313801 -0.44939101 4.6646099
3.7959499 -0.24979299 4.67103
2.70489 0.125213 4.62292
3.1567099 -0.6322 4.7793798
2.5747299 -0.45780301 4.6517801
2.29124 0.0031479101 4.6720099
2.1793699 -0.483924 4.6785002
1.97997 0.26420301 4.6694698
2.0539401 -0.39660901 4.6827898
3.80285 0.37221301 4.6076398
2.7263601 -0.57317299 4.6963
2.7074399 -0.420055 4.6550102
3.45823 0.0267589 4.6428599
1.81485 0.22566199 4.6098199
2.13165 -0.39700601 4.6837802
2.4509101 -0.58694202 4.6774001
2.3954899 -0.51272202 4.7179298
2.5058701 -0.50752097 4.6894498
3.4280701 0.070515297 4.6459899
2.30147 -0.51664197 4.6845498
2.7809999 -0.70382398 4.7234001
2.7801499 -0.69116402 4.7101402
2.2336299 0.016918501 4.6392002
3.0756099 -0.49618301 4.6931
2.1914699 0.115807 4.6160302
3.05035 -0.30258799 4.65802
2.7119 -0.103481 4.6196799
2.0345199 0.315496 4.6199002
2.9858601 -0.37901399 4.67168
2.2063301 0.30073601 4.6276102
1.96909 0.100774 4.62919
2.03666 0.28667599 4.6035099
1.95354 0.322869 4.62468
1.98083 0.232416 4.6047301
3.08568 -0.383867 4.66118
2.4867301 0.133599 4.6217299
3.3376701 -0.81865901 4.69452
2.07728 0.151039 4.6498199
3.0481801 0.112003 4.6245298
2.18151 0.0869985 4.6045299
1.90669 0.063175403 4.6815701
2.68959 -0.315034 4.6413798
3.89375 0.66912299 4.57305
3.4294801 -0.23534299 4.68472
2.9544799 0.128562 4.6352
2.7116301 -0.72805703 4.70397
2.55704 -0.477485 4.7041202
2.3578999 0.148761 4.6206298
2.38326 0.14899699 4.6401801
1.80911 0.28239599 4.60954
1.8089401 0.28240201 4.61198
1.81499 -0.426947 4.6950002
1.8215899 -0.405238 4.6938701
1.86783 0.28511801 4.6069899
1.86035 0.283169 4.6092
1.80945 0.26961601 4.6108899
1.91997 0.071737401 4.67664
1.81747 0.251066 4.6224298
1.78509 0.116668 4.6161699
1.81785 0.147644 4.6152601
1.80021 0.16962899 4.6208801
1.85588 0.215418 4.61063
1.8067501 0.21467701 4.61549
1.87312 0.255476 4.6108899
2.23719 -0.42064801 4.6733699
3.4277999 -0.112901 4.63516
2.28336 -0.0229162 4.6356201
3.45929 -0.0421873 4.6408801
2.0889101 0.044729698 4.63691
2.1870999 -0.026260599 4.64078
1.91552 0.30103999 4.6160302
2.1529701 -0.50577497 4.6745901
2.24966 -0.556494 4.6844201
2.25476 -0.554748 4.6827598
2.32813 -0.56982303 4.7355599
3.42154 -0.166611 4.6356902
2.11464 -0.44681901 4.6666002
2.4964199 -0.64039302 4.6905198
2.9886501 -0.14072201 4.6458001
1.89933 -0.31473899 4.6673198
2.32723 -0.52121699 4.6746202
2.50383 -0.60413498 4.6975899
2.1078999 -0.39441001 4.6627698
2.3742499 -0.52416903 4.6802101
2.58318 -0.60966903 4.6319098
2.2328 -0.42352301 4.6621799
2.6879201 -0.63222498 4.68891
2.7067499 -0.61486202 4.6897101
2.5276401 -0.506675 4.6870999
2.6854 -0.56731302 4.67835
2.4275899 -0.454474 4.65765
2.76191 -0.559075 4.6840501
2.5343499 -0.45206001 4.6817398
2.6754 -0.49352399 4.6765499
2.69157 -0.49301001 4.6833601
3.1499 -0.62135297 4.6917801
3.3707299 -0.68939501 4.6968498
3.6740899 -0.79421198 4.7016301
3.2383699 -0.61815399 4.68749
2.69523 -0.41744199 4.6996102
2.79796 -0.45102301 4.6800199
2.91521 -0.48838499 4.6929698
2.9180701 -0.47536501 4.6722298
2.68206 -0.32013899 4.6582899
3.7211299 -0.580486 4.6848402
3.0239301 -0.379087 4.65412
3.2820101 -0.42451799 4.6757102
3.5039301 -0.44850299 4.6796198
3.1536701 -0.32950899 4.6639099
3.0455301 -0.28451601 4.6570802
3.7274101 -0.374383 4.67803
2.82566 -0.194611 4.6584001
3.0962501 -0.22381601 4.6560402
2.85377 -0.178771 4.6549401
3.3494 -0.22830901 4.6617498
3.7887101 -0.26933399 4.6687102
3.24298 -0.16322599 4.6522498
2.7360201 -0.090857998 4.6440201
3.4096701 -0.138179 4.64011
2.48382 -0.036496598 4.6357002
2.34465 -0.0192116 4.6311698
2.7481201 -0.034945499 4.6334701
2.34462 -0.0096253604 4.6306
2.1907699 0.019275401 4.6318998
2.3896799 0.0067717298 4.63342
2.1918001 0.0234072 4.6322498
2.3410499 0.019103 4.6223998
2.39236 0.016319601 4.6244001
2.9467101 -1.32352e-05 4.6247902
2.0019801 0.0479942 4.6163101
1.9962699 0.052224401 4.6389799
2.7312701 0.0229096 4.63025
2.76791 0.0213459 4.62572
2.87679 0.0172376 4.63379
2.7341499 0.029110201 4.6310902
2.2458301 0.050842699 4.6280298
2.8267 0.045660399 4.6273499
2.55743 0.069260098 4.6423502
2.29513 0.081227504 4.6269202
2.7293301 0.079263799 4.6266999
2.0915899 0.0856767 4.6173201
2.3988099 0.085766204 4.6286702
3.18117 0.084926799 4.6144199
2.75425 0.091755502 4.6233501
3.2372501 0.093320303 4.62288
2.7220199 0.104056 4.6225901
2.7702501 0.104588 4.62257
3.08448 0.108039 4.6219702
2.8838501 0.112737 4.6250401
2.3041899 0.113157 4.6208601
2.0927501 0.116041 4.6272998
2.4186101 0.125441 4.6064
2.22246 0.136582 4.6097102
2.09482 0.13482299 4.6237001
3.4639101 0.202702 4.6138201
3.8118801 0.251122 4.61204
2.0957 0.149523 4.6083798
2.2083399 0.156978 4.61303
3.0300601 0.224921 4.5991802
1.9953901 0.160254 4.6273899
1.99921 0.16023999 4.61339
2.81935 0.229403 4.6092901
3.1303201 -0.221147 4.6593399
1.93695 0.161227 4.6125302
2.0992501 0.17609499 4.6089401
1.89405 0.16607501 4.6087599
2.0773301 0.18525501 4.6163101
2.0065899 0.201546 4.6124401
1.92781 0.19419999 4.6062102
2.1029999 0.21769799 4.6049099
2.01037 0.242608 4.6089301
2.89691 0.064830802 4.63201
1.90532 0.23904601 4.6124101
2.1307299 0.30617601 4.6206698
1.97364 0.26525399 4.6105599
2.4995 -0.60186899 4.70084
2.3376901 -0.51659697 4.67033
2.3556299 -0.434057 4.6799598
1.91777 0.168551 4.6094499
1.8963 0.163314 4.60781
1.8954099 0.145475 4.6113901
2.8022399 -0.466093 4.6758399
2.9706099 -0.52133101 4.6862998
2.8333399 0.18508799 4.6363001
3.8025899 0.22958 4.6004
3.3917999 0.20846599 4.6379199
3.1705999 -0.520926 4.6940598
2.8247499 -0.391357 4.6676302
2.9885299 -0.37761399 4.6640401
2.7437201 -0.034501601 4.63801
3.43557 -0.059136402 4.6350498
3.77408 0.0434664 4.6216602
2.1206501 0.21234301 4.6011701
3.1552601 -0.28941599 4.6626201
2.9254601 -0.55008298 4.6926899
1.97466 0.106443 4.7176499
1.88333 0.25976899 4.6111898
1.8796 0.26592699 4.60708
1.90071 -0.314928 4.6662002
1.90855 0.24425399 4.6191802
2.64537 -0.35692099 4.6579299
1.9117 0.30324799 4.62005
1.91039 0.30281201 4.6213698
1.8962899 0.145574 4.6153498
1.989 0.16129699 4.60145
1.89801 0.155928 4.6136498
2.7302201 -0.101343 4.6451998
3.4163499 -0.181472 4.6500902
2.1886301 -0.0155312 4.6361098
2.46275 -0.59474301 4.6921802
2.6953599 -0.67803001 4.71244
2.26474 -0.41425699 4.6736898
2.71281 -0.61982399 4.6828599
2.68627 -0.56532198 4.68011
2.7539001 -0.58237398 4.6876502
2.1506 0.30523899 4.6194601
2.90394 -0.62619501 4.7028399
3.65765 -0.93186802 4.7178798
2.66048 -0.51244903 4.6998801
2.2665401 -0.34694499 4.6629
2.66904 -0.51009202 4.6982098
2.9163401 -0.60362703 4.7070198
3.6714201 -0.89728498 4.7304101
3.6654999 -0.86535001 4.7084298
2.9231999 -0.55796599 4.7013402
3.7209201 -0.78563601 4.6726499
3.02858 -0.53153402 4.6937099
3.2397499 -0.60281599 4.6898298
2.2258101 -0.0073031299 4.6337399
2.8101101 -0.39411399 4.6735301
2.67294 -0.31847501 4.6745601
3.0273299 -0.40778801 4.6744699
3.4216499 -0.47830799 4.6784201
3.5287499 -0.468346 4.6840801
3.72155 -0.464297 4.6632299
3.05127 -0.28310701 4.6574502
3.72295 -0.38506001 4.6612401
3.24032 -0.23226701 4.6614199
3.0150101 -0.191012 4.6479101
2.7298501 -0.107212 4.6452899
2.8652101 0.0109801 4.6361499
2.73488 -0.066418096 4.6399498
2.4314301 -0.0240594 4.6328802
2.28561 -0.0080146501 4.6357002
2.9697399 -0.30862501 4.6696501
3.4627299 -0.038131099 4.6335301
2.4925599 0.0153247 4.6247101
2.3892901 0.033708099 4.6298599
3.4637001 -0.00333018 4.63272
2.2423601 0.062345199 4.6249299
2.2974 0.065970004 4.6347599
2.3942201 0.069658197 4.62186
2.72243 0.0744038 4.6287498
2.27492 0.0859349 4.58816
2.8137901 0.092817001 4.6247602
3.0962 0.103456 4.6237102
2.0936699 0.100732 4.6216998
2.73318 0.120844 4.6199298
2.26805 0.118195 4.6181502
2.30405 0.123891 4.6192799
3.0813601 0.188813 4.6156201
3.4424 0.211271 4.6113501
2.8213501 0.178647 4.6061702
2.82547 0.19729701 4.6070499
2.2031 0.15643799 4.6098399
2.0781901 0.184677 4.6178699
2.00385 0.186638 4.6117601
3.38746 0.21614499 4.6120801
2.5246401 -0.51016998 4.6858501
2.7667899 -0.51240897 4.6782699
3.2621901 -0.63517803 4.6905499
3.67419 -0.67006803 4.6856098
2.7237799 0.033755299 4.6252799
3.1363699 -0.429216 4.68608
3.12549 -0.22228999 4.6599398
2.1020501 0.17781299 4.61308
3.8236401 0.36405599 4.5963202
3.8273201 0.27513301 4.6096201
2.52005 -0.51878703 4.6838899
3.6744399 -0.74929899 4.6977301
3.7222199 -0.53353 4.6789498
2.7309501 0.084271997 4.6208601
2.8039601 -0.439648 4.6791401
2.04531 0.28002 4.6017098
2.7228601 0.040916398 4.6293802
2.94363 0.0369335 4.62712
2.0931301 0.149552 4.6228299
2.3520501 -0.43466401 4.67981
2.18678 -0.016455701 4.63627
3.7471399 -0.10965 4.6283898
2.1838801 -0.55334902 4.7368698
2.17817 -0.54593301 4.7284598
2.28493 -0.59808397 4.7560401
2.51176 -0.58575797 4.69909
2.3540699 -0.495307 4.6682501
2.7286999 -0.68746698 4.72505
2.3263199 -0.45896 4.68364
3.0415001 -0.145923 4.6263199
2.69382 -0.62412602 4.7048998
2.8061099 -0.67578602 4.6774802
2.3330801 -0.43364701 4.6791101
2.4428401 -0.438636 4.6572399
2.9321001 -0.60710597 4.69417
2.69558 -0.49665499 4.6847801
2.76842 -0.52103502 4.6771402
3.6717 -0.82296598 4.6906099
3.1482799 -0.60982603 4.6666899
2.94486 -0.133451 4.6703801
2.9597099 -0.48015401 4.66992
3.0283201 -0.482804 4.6585898
3.1969299 -0.52868497 4.71066
3.6714399 -0.68046498 4.6957402
2.8045399 -0.398276 4.6721601
2.89589 -0.40789601 4.6836901
3.4212201 -0.54171401 4.6908998
3.4786401 -0.52447701 4.65943
3.1736701 -0.42564201 4.6700602
2.90293 -0.33443999 4.6719999
3.2762201 -0.413903 4.6769199
3.08497 -0.31799001 4.6547198
3.5470099 -0.409915 4.6771798
2.8691399 -0.197238 4.6585798
3.7376201 -0.30771899 4.6587501
3.22734 -0.22103199 4.6539602
3.73719 -0.175083 4.62743
3.18576 -0.112286 4.6574202
2.28651 -0.0034990101 4.6376901
2.40079 0.00063913502 4.6212001
2.33727 0.00845493 4.6217499
3.16117 -0.038325801 4.6392798
3.7665 -0.053822499 4.6321001
2.19046 0.0269878 4.6301298
3.3536699 -0.232076 4.6594801
3.3863201 -0.043029901 4.6489401
3.3903699 0.029212 4.6716599
3.4748001 0.027438801 4.6345
2.4528999 0.106703 4.6131001
2.7265201 0.12743001 4.61198
3.07425 0.189842 4.61445
2.7939899 0.18118501 4.6016202
3.81654 0.29985201 4.5985799
2.1294899 0.26913401 4.59272
3.0486801 0.234245 4.59726
2.69099 -0.63427597 4.6932998
2.78016 -0.51346099 4.69912
3.35325 -0.685184 4.7042198
3.6710701 -0.79399902 4.69875
2.4732299 0.107453 4.6157598
2.09272 0.084769197 4.6150699
2.9481201 0.0054834401 4.6484199
2.2209101 -0.0057906001 4.6308599
3.40869 -0.142125 4.63515
2.2671399 0.0199464 4.64115
3.66729 -0.944498 4.7200398
2.9243 -0.57156098 4.6833901
2.7288201 0.067983799 4.6258101
3.7755899 0.040980399 4.6227498
1.74512 -0.56424499 4.69487
2.1091001 -0.39493701 4.66539
1.74831 -0.53092098 4.6928501
2.2098999 -0.42303699 4.67208
1.77949 0.14333899 4.6300302
1.8018301 0.17528699 4.61729
2.36257 -0.48134199 4.6887698
2.5153 -0.52541101 4.6886001
2.81287 -0.46129999 4.6644201
2.23283 -0.418129 4.6704402
1.80514 0.144936 4.6189599
1.78184 0.160652 4.6272402
1.7823 0.17349499 4.6276202
1.78602 0.22102 4.62152
1.81077 0.224291 4.60958
1.8123 0.246278 4.6106601
1.84524 0.255303 4.6112499
1.81489 0.25533801 4.6122298
1.84316 0.25939599 4.6147099
1.87512 0.27340201 4.6092701
1.7855999 0.26795301 4.61731
1.95674 0.18553901 4.6725001
1.9980201 0.312556 4.60882
2.5206101 -0.51956302 4.6834798
3.05355 -0.54375601 4.70506
1.9136 0.23147701 4.6198902
2.12989 0.233298 4.64359
2.8501401 -0.39366701 4.6780901
2.70158 -0.628034 4.6886902
2.9407401 -0.57634097 4.6866999
2.7687399 -0.50106901 4.6904802
3.2376299 -0.57199001 4.70187
3.24911 -0.51167798 4.6557002
2.0608699 0.28087899 4.6011801
2.94381 -0.40590101 4.69103
3.119 -0.42376801 4.67028
3.14837 -0.32198799 4.66153
2.2806301 0.017934799 4.6416001
2.35356 -0.43785501 4.6854901
2.727 0.0624003 4.6379499
2.6926799 -0.56785399 4.6785102
2.53107 -0.50833303 4.6877999
2.47067 -0.62570602 4.6834602
2.7407801 -0.48458001 4.6809402
2.8690901 -0.197891 4.66225
2.97574 -0.112695 4.67098
3.74371 -0.323946 4.6620898
2.38113 0.113864 4.6187701
2.3868799 -0.059797 4.6247401
3.8215899 0.26917601 4.6083002
3.35884 0.232062 4.6181898
2.9702101 -0.27450401 4.6659999
2.28669 0.287065 4.61061
3.87306 0.64230502 4.5784998
2.2016399 0.16459 4.6163902
2.19225 -0.019599101 4.63941
2.96088 -0.28193599 4.6629701
2.8245699 0.18635 4.6388102
2.29969 0.150646 4.6135602
2.42628 0.250054 4.6179299
2.43483 0.278054 4.6147399
2.30901 0.144752 4.6107998
2.6298299 -0.60019797 4.63202
3.8248701 0.34270701 4.5985599
3.80778 0.1832 4.6155701
3.8025 0.182704 4.6266398
3.6847899 -0.87982702 4.7188301
3.68137 -0.83013201 4.70717
2.9374101 -0.58472502 4.6944199
3.4358101 -0.54624999 4.7058702
3.16149 -0.62121803 4.6884198
2.82689 0.137172 4.6133499
2.7386799 0.247051 4.6132102
3.82742 0.41615701 4.5886798
3.6868401 -0.66291898 4.68855
2.19713 0.033858199 4.6304002
3.26122 -0.52570999 4.6791101
3.4590299 0.0208467 4.6266198
2.7181499 0.038747001 4.6345901
3.30251 -0.42184201 4.70327
2.26086 0.118171 4.6223402
3.7402799 -0.39631701 4.6716299
3.1558001 -0.29359901 4.65449
3.78284 0.098188497 4.6083498
3.2362199 0.095508702 4.64538
3.0949099 -0.217647 4.65803
3.30674 -0.24436601 4.6565599
2.96995 -0.13943399 4.67766
2.9844201 -0.139746 4.6459098
3.2313399 -0.16424599 4.6483798
3.45384 -0.18679801 4.6641102
2.7300701 -0.106179 4.6356902
2.36868 0.28393 4.6169
3.0113001 -0.096602403 4.6456199
2.7393899 -0.066758402 4.6395102
3.2590899 -0.085608803 4.6373301
3.45103 -0.099520802 4.66536
2.19345 -0.0078328596 4.64012
2.9326401 0.059586301 4.6435199
2.3392701 0.0093409903 4.6270599
2.3887401 0.0067604901 4.6333199
2.8946099 -0.017978201 4.6478801
3.4739399 -0.0458389 4.6504798
3.1791799 -0.0123736 4.65727
2.3487101 0.0216015 4.6375999
2.2570701 -0.028154099 4.6375198
2.27529 -0.0296805 4.6265302
2.2163501 -0.0144724 4.6429901
2.25857 -0.017144 4.6329098
2.2502201 -0.0056055202 4.6327801
2.2265999 -0.00186845 4.6342602
2.1905501 0.027257601 4.63027
2.1914501 0.037322301 4.6305699
2.1906199 0.039785001 4.6272001
2.2835 0.0562337 4.6402202
2.27527 0.075667202 4.6374202
2.26843 0.12812901 4.6285601
2.1995201 0.123368 4.6165099
2.22015 0.13420101 4.6131001
2.2261801 0.13518199 4.6160998
2.1933801 0.159729 4.6181798
2.3829701 -0.0115294 4.6336098
3.77003 -0.030117501 4.6320801
2.4651599 -0.60184902 4.70331
2.3618801 -0.51676798 4.6287999
2.37501 -0.518071 4.6451802
2.68487 -0.67218697 4.7069201
2.28951 -0.41495299 4.67904
2.2911799 -0.41292399 4.6775398
2.45017 -0.48813099 4.6763501
2.70964 -0.630624 4.6886501
2.4598999 -0.460226 4.6680698
2.2770901 -0.34812 4.6644001
2.6918399 -0.559919 4.6799798
2.91536 -0.65661502 4.71387
2.5312099 -0.46162099 4.6813698
2.5192001 -0.43987 4.67974
2.78953 -0.55437398 4.6743598
3.66359 -0.94424099 4.7152801
2.6516099 -0.47168601 4.68718
2.7258301 -0.50032097 4.6884198
2.8441501 -0.53740197 4.6880102
2.76965 -0.50014502 4.68537
2.7707701 -0.49577901 4.6810899
2.9463201 -0.56491399 4.6831198
3.0446501 -0.59426701 4.6853499
2.9610701 -0.53111202 4.68363
3.24558 -0.63616103 4.6925702
2.9239399 -0.49383399 4.7017899
3.7238901 -0.796664 4.6805701
2.66432 -0.38734499 4.6743398
3.1760099 -0.56959999 4.69385
3.6863101 -0.73892897 4.7006102
2.6614599 -0.35933501 4.6758099
2.6600201 -0.34098101 4.6742001
2.80936 -0.390221 4.6740899
2.6869299 -0.31817299 4.6588502
3.71679 -0.58481997 4.68958
3.4023499 -0.481769 4.6726298
3.0905199 -0.39031801 4.6697001
3.1141901 -0.39048299 4.6679401
2.9684501 -0.30632401 4.6739898
3.0959599 -0.281066 4.65663
3.1610999 -0.29391199 4.66012
2.8259001 -0.17186999 4.6553001
3.17117 -0.42494601 4.6746602
3.00491 -0.14232901 4.63554
3.2175801 -0.166667 4.64747
2.72174 -0.104952 4.6437898
2.97333 -0.132889 4.64855
3.74896 -0.19315299 4.6554999
2.7255399 -0.068349399 4.6400199
3.3879499 -0.53650397 4.6832299
3.20153 -0.55916399 4.6851301
3.4298201 -0.10982 4.6430202
2.3378799 -0.0282165 4.6268201
2.43559 -0.0208412 4.6340199
2.4498 -0.021586999 4.6340499
2.5073099 -0.020834001 4.6348801
3.39094 -0.042152401 4.6345701
2.2848101 0.001556 4.63592
3.21281 -0.029065199 4.6350498
2.82093 -0.0111893 4.63235
3.15274 -0.0207312 4.6420102
2.28546 0.0101738 4.6332502
2.4744799 0.0063385 4.6503501
2.91766 0.0075349198 4.6442399
3.7801199 0.039189201 4.6247101
2.3882 0.044046201 4.6286201
2.29445 0.047845699 4.62782
2.7293701 0.078945599 4.6276202
2.80778 0.092234001 4.62679
2.5564401 0.090829797 4.6325202
2.7653699 0.104113 4.6185699
3.6735799 -0.879839 4.7168598
2.39606 0.083740197 4.6199198
2.29582 0.082791299 4.6271901
2.2724099 0.083762102 4.6181102
2.3926401 0.093367897 4.6232901
2.72844 0.120104 4.6255798
3.8017001 0.21409599 4.6092901
2.4621301 0.109499 4.6196699
2.4015601 0.11059 4.6195402
2.50577 0.124578 4.6167202
2.3008599 0.106463 4.6189299
2.51103 0.132588 4.6198502
2.7197101 0.155683 4.6283698
2.3013401 0.112365 4.62187
2.4858 0.13338999 4.61379
3.8236201 0.31249401 4.60432
2.7913201 0.19241901 4.63834
3.66711 -0.95442802 4.7167501
2.67661 -0.496746 4.68609
3.0169899 0.233676 4.6063499
2.3978801 0.149624 4.6181998
2.67291 -0.49498099 4.6881599
3.8364501 0.437161 4.5960798
3.8263099 0.391635 4.59442
2.30283 0.121278 4.6198301
2.4296501 -0.48716399 4.6817899
3.42343 -0.18296701 4.6500602
3.77191 -0.239196 4.6551199
2.4093699 -0.063486502 4.6366901
3.0150499 -0.60581797 4.68367
2.72574 0.0970544 4.62497
3.68435 -0.66122001 4.6895599
2.2790301 -0.037706401 4.64325
2.2677 -0.49090901 4.66855
2.2874401 -0.415611 4.6778202
2.33565 -0.056255601 4.65131
2.2788999 -0.035140902 4.6403298
2.3332801 0.0109354 4.6265101
2.2875199 0.019324001 4.64605
2.2901399 0.0633085 4.6315699
2.29372 0.084291399 4.6304598
2.3757999 0.10712 4.6301599
2.35093 0.106807 4.6225801
2.3024299 0.147321 4.6096501
2.3129799 0.154926 4.6370401
2.37603 0.144465 4.6213598
3.4079101 -0.47748399 4.6799998
2.5059299 -0.64399701 4.6971202
2.5125699 -0.63718897 4.6979299
2.5162599 -0.616485 4.6954198
3.2593801 -0.52344 4.6841302
2.5092001 -0.56895101 4.7008801
2.6772101 -0.669837 4.7035298
2.65871 -0.65867198 4.67416
2.37275 -0.43768001 4.6904998
2.46925 -0.47400501 4.6802702
2.4691401 -0.45228201 4.6784401
2.79845 -0.39175501 4.6732602
2.7525499 -0.57407802 4.68153
2.6508901 -0.50354898 4.6957998
2.7657399 -0.52784097 4.6816702
2.7509601 -0.50181299 4.6849098
2.9244399 -0.57528001 4.6939001
2.65342 -0.44434801 4.68505
3.0200701 -0.60093898 4.6950598
3.1399601 -0.61598402 4.6817498
2.95978 -0.53000402 4.6883101
3.6723599 -0.81910598 4.70715
3.3610301 -0.68555498 4.6999102
2.6619799 -0.38753101 4.6824899
3.0908301 -0.54677403 4.6855898
3.68765 -0.74004602 4.7005701
3.1380701 -0.51457202 4.6935301
3.2453201 -0.54573703 4.6730299
2.6677301 -0.34255201 4.6665201
2.80301 -0.38851401 4.67097
2.6693699 -0.330174 4.6666999
2.90886 -0.40319499 4.6806002
3.0245299 -0.41780901 4.6757398
3.3935299 -0.53121197 4.6841302
2.6698999 -0.30440599 4.6735301
3.1489 -0.43723899 4.6822
3.68944 -0.58919197 4.6536798
3.7072001 -0.576258 4.7080402
3.69382 -0.54782701 4.6777701
2.67399 -0.267077 4.6694198
3.2435901 -0.6117 4.68854
3.0843401 -0.31770301 4.6585798
3.5280199 -0.40278101 4.6696801
3.71419 -0.39322999 4.6612501
3.42185 -0.19278599 4.6575599
3.2217 -0.23989099 4.64783
3.2239699 -0.233731 4.6546998
2.6874599 -0.142198 4.6486001
3.1168499 -0.205192 4.65554
3.2281499 -0.215042 4.6617298
3.3322999 -0.230103 4.6526999
2.96644 -0.129778 4.6473799
2.69086 -0.108565 4.6525698
3.66223 -0.95088202 4.7177901
2.37974 -0.061005 4.6307101
2.4851899 -0.071397804 4.6367898
3.3690701 -0.131721 4.6417999
2.9221001 -0.089088298 4.6434898
2.6988599 -0.067019403 4.6422
2.7237899 -0.069089003 4.6318798
2.4846201 -0.044113901 4.6308899
2.4755399 -0.040076502 4.6337299
3.2211201 -0.088171497 4.6213102
2.4551101 -0.028854501 4.6367302
3.7595899 -0.088934198 4.6377401
2.3828299 -0.0070785498 4.6374698
3.2837999 -0.0335017 4.62432
2.3998499 -0.00167442 4.6245599
2.4921401 -0.00360798 4.6266198
3.1104801 -0.0168043 4.6253901
2.4659801 -0.46850601 4.6806898
3.07024 0.0180762 4.6340299
3.4582 0.0188208 4.63271
2.9268601 0.032940399 4.6287098
2.4914401 0.0303344 4.6234798
3.4495499 0.054095902 4.6209602
2.7209301 0.0429998 4.6313701
2.8274901 0.0457239 4.63415
2.5738201 0.057979599 4.6455302
3.7876301 0.111543 4.6212401
2.59043 0.062414099 4.6419501
3.1619599 0.101706 4.6296401
2.8115599 0.091247 4.6272502
3.0618401 0.112846 4.6361399
2.38976 0.070313998 4.6249099
2.7642701 0.105774 4.6223402
2.3913 0.079343498 4.6254301
2.88539 0.13002799 4.6314402
2.4833901 0.103441 4.6184702
2.7405601 0.138164 4.6154099
2.9623301 0.16767301 4.62323
2.3858399 0.0078347102 4.6387401
2.50543 0.125935 4.6129098
3.3408899 0.230186 4.62044
2.4039099 0.119333 4.6177001
3.81671 0.305888 4.5967302
2.48228 0.132953 4.6153402
2.75561 0.18747699 4.6208801
2.40399 0.137206 4.6132998
2.7793 0.208459 4.60675
3.8269701 0.382626 4.60495
2.4075799 0.149938 4.6300402
3.82499 0.415456 4.5946498
2.5232501 -0.54687297 4.7061
3.81689 0.37250599 4.59407
3.79369 0.178554 4.6119399
2.7144699 0.030115999 4.6325898
3.7089701 -0.417209 4.6687999
3.8141201 0.31398001 4.6040201
2.54036 0.12692501 4.6240301
3.1900001 -0.55877298 4.6820998
2.3706701 -0.45603499 4.6821098
2.375 -0.44477099 4.68258
2.3848801 -0.058566902 4.6497302
2.4714701 -0.0591463 4.6398902
2.3789699 -0.042429902 4.63978
2.4747701 -0.0386828 4.6321602
2.3852501 -0.0273114 4.63166
2.38042 -0.021684701 4.6365399
2.48613 -0.0153531 4.6279302
2.3838601 0.0016534301 4.6349502
2.48545 0.038631301 4.6282401
2.5013101 0.096470498 4.62151
2.40065 0.106713 4.6174598
2.39979 0.106543 4.61413
2.4001801 0.111847 4.6165099
3.7005501 -0.476852 4.6731901
2.4651201 -0.60167402 4.7032099
3.1577599 -0.290842 4.6586599
2.51423 -0.63516599 4.6982698
2.5183001 -0.609833 4.70575
2.5039101 -0.57114297 4.70293
2.50843 -0.57100999 4.7035599
2.52145 -0.552414 4.7063498
3.5352399 -0.40673399 4.6700802
2.6859801 -0.63470799 4.7002602
2.6875899 -0.62802202 4.6853099
2.70976 -0.625395 4.6881399
2.65083 -0.48794699 4.6828899
2.76667 -0.52349299 4.6805701
3.6617601 -0.94664299 4.7149401
2.7709899 -0.50329399 4.6859398
2.6550701 -0.434984 4.6778898
2.8398299 -0.51845002 4.6774602
3.05088 -0.584324 4.6906099
3.6749799 -0.86301601 4.71527
2.9307799 -0.52553397 4.6883898
2.6605799 -0.40213799 4.6754098
2.8401101 -0.48077101 4.6837802
3.14061 -0.61256099 4.6928701
3.1672399 -0.62439799 4.6890898
2.6609399 -0.39809999 4.6827402
2.6614699 -0.39046499 4.6824999
3.33638 -0.678128 4.7006602
2.66271 -0.375644 4.6710601
3.1993201 -0.558541 4.6882901
3.03456 -0.49010301 4.6710901
2.9043801 -0.43516901 4.68153
2.8017399 -0.387795 4.6712499
3.1602399 -0.519189 4.7020702
2.66996 -0.33526501 4.6691399
2.85888 -0.399194 4.68015
2.66802 -0.326419 4.6782198
3.6946001 -0.69225299 4.6977401
2.67258 -0.28122899 4.6703501
3.3924799 -0.46867099 4.6729898
3.3942201 -0.46234 4.6733298
3.70468 -0.54283899 4.6546102
2.9568999 -0.30841601 4.6638699
3.7119501 -0.464347 4.6452699
2.7063301 -0.207515 4.66115
2.6848099 -0.190934 4.6641402
2.81692 -0.19246601 4.6577301
2.84689 -0.18911999 4.6537399
3.7144101 -0.344504 4.6478601
2.8192401 -0.175244 4.6578798
2.8482499 -0.17579401 4.6535902
3.2225699 -0.238381 4.6503701
3.7363501 -0.31583199 4.6614799
3.72858 -0.31483501 4.6510401
3.32657 -0.236601 4.64605
3.74035 -0.268213 4.6604099
2.7214401 -0.10287 4.6438498
2.92238 -0.121224 4.6467299
2.7227099 -0.091157198 4.6399298
2.4848399 -0.060636502 4.63099
2.9230499 -0.102242 4.6458001
3.3559101 -0.137363 4.63978
3.11112 -0.109209 4.6475401
2.9687099 -0.1313 4.6486902
3.2137799 -0.100627 4.6441302
3.74576 -0.188906 4.6503701
3.75699 -0.125963 4.6430502
3.40537 -0.13509201 4.6464601
3.7689199 -0.030668801 4.6343098
3.4579899 0.0030781301 4.6328502
2.91257 0.034227502 4.6353402
2.8310399 0.041478701 4.63657
3.30761 0.077795103 4.6265602
3.7767701 0.104473 4.6144099
2.7985001 -0.42672399 4.6763802
2.4972501 0.060023699 4.62147
2.4983499 0.069133803 4.6215501
3.24559 -0.61435598 4.6887202
3.7953999 0.185204 4.6163101
2.5424199 0.091421798 4.62779
3.8031199 0.23356199 4.6084399
3.1010101 0.164995 4.62045
2.7314301 0.12855899 4.625
2.9457901 0.157208 4.60812
2.95678 -0.52158302 4.68788
2.7565999 0.18658701 4.61339
2.7507501 0.25564 4.60849
2.76373 0.10407 4.6199799
3.18138 0.09533 4.6293101
2.4644001 -0.46805 4.6809502
3.7774999 0.041018099 4.6256299
2.65171 -0.50378799 4.6959
2.92783 -0.57994199 4.6904898
3.7267201 -0.39440301 4.6700602
3.8194699 0.36287999 4.5992699
2.4854 -0.045265902 4.6315799
2.4872899 -0.0105816 4.6290002
2.5134201 -0.639561 4.7010002
2.5151501 -0.60632801 4.69274
2.5048201 -0.571356 4.70189
2.4604599 -0.46547201 4.6767201
2.5199599 -0.142464 4.6433802
2.4956901 -0.0734464 4.63691
2.5158 -0.016919799 4.6405001
2.4919801 0.023910301 4.6238999
2.50194 0.093775697 4.62186
2.50038 0.0934643 4.6178398
3.1596601 -0.29100299 4.6693501
2.6775601 -0.67430401 4.7056899
2.6840301 -0.67640603 4.6929798
2.6930799 -0.66813201 4.6879201
3.3961699 -0.46814999 4.6711102
2.5228901 -0.50478202 4.6844301
2.6468401 -0.53974801 4.6883202
2.6505899 -0.509224 4.68783
2.6723001 -0.49651501 4.6893401
2.67278 -0.493274 4.6858902
2.6505499 -0.476796 4.68086
2.77004 -0.51774001 4.6850801
2.77301 -0.502832 4.6855602
2.6583099 -0.433992 4.6787
2.8390701 -0.51692402 4.6784902
2.66049 -0.42058101 4.6788802
2.6608701 -0.40954801 4.68472
3.6949201 -0.92093003 4.6809402
2.79761 -0.46548799 4.6866298
2.96489 -0.54244697 4.68677
3.6707001 -0.87548298 4.7139802
2.66274 -0.38934201 4.67379
2.7973001 -0.45285001 4.6851401
2.7967401 -0.44866601 4.6804299
2.8642099 -0.476237 4.6777601
2.9465899 -0.51025999 4.6733499
2.66274 -0.374589 4.6789098
3.6859 -0.84347397 4.70963
3.2457399 -0.61230201 4.6827598
3.6803 -0.80146903 4.7119298
2.6659 -0.35075799 4.67871
2.7999201 -0.40042201 4.6737399
2.9033201 -0.44366699 4.6814699
2.6695299 -0.338337 4.66995
3.03613 -0.48988101 4.6739802
3.0845001 -0.499163 4.6753702
2.66834 -0.32661 4.6779099
2.8119199 -0.384354 4.6760702
3.1010699 -0.50029701 4.6788702
3.6940401 -0.73658502 4.71207
3.69258 -0.736431 4.7040601
3.2218499 -0.54298401 4.6772499
2.92307 -0.40110499 4.6761398
3.2599599 -0.51567 4.6812401
2.73034 -0.31751701 4.6666298
2.68291 -0.286383 4.6538301
3.7088799 -0.63318998 4.6947398
3.11146 -0.423417 4.6774302
3.16659 -0.43109301 4.6742101
2.9095399 -0.33681199 4.6749701
3.09831 -0.397618 4.6785798
3.70784 -0.59390199 4.6914601
2.6756599 -0.257963 4.6691799
3.2714601 -0.418109 4.6669202
3.2635 -0.40376499 4.66785
3.4015501 -0.44336799 4.6776299
2.9633999 -0.307569 4.6595702
2.9733901 -0.310321 4.6609201
3.1499701 -0.327245 4.6624398
2.9611399 -0.27376801 4.6641402
3.53034 -0.40408501 4.6680698
3.0623 -0.278833 4.6689801
3.7207301 -0.41218001 4.6676302
2.8480101 -0.194802 4.6564999
2.8483601 -0.174171 4.65066
2.97541 -0.197476 4.6561599
3.0204401 -0.205699 4.6589298
3.10058 -0.22101299 4.6490998
2.84657 -0.16936401 4.6570902
3.03896 -0.40944701 4.6682701
3.0230801 -0.19196799 4.6497202
3.10624 -0.20093299 4.6552401
3.3229101 -0.238346 4.6399899
3.32798 -0.22670799 4.64712
3.7421401 -0.26228401 4.65657
2.7955699 -0.11314 4.6457
2.96117 -0.135818 4.6334801
3.42222 -0.190129 4.6536102
3.4114299 -0.15720899 4.6465602
3.7437601 -0.186185 4.6440802
3.10254 -0.107918 4.6451898
2.72579 -0.067512497 4.6406498
2.92853 -0.0599471 4.6426802
3.1563101 -0.044071201 4.6463399
3.4639699 -0.052046601 4.6472001
2.87853 0.0146351 4.6347799
3.45788 0.018456999 4.6328902
2.91328 0.0359236 4.63304
2.80111 0.038288701 4.6378198
3.7778001 0.071319103 4.62187
3.13519 0.095349297 4.6238399
2.72698 0.0792678 4.6294999
2.7634301 0.099836297 4.6245198
3.7851701 0.207476 4.5994601
3.80164 0.217106 4.6117201
3.19613 -0.56111598 4.6887898
3.8027899 0.27000901 4.6007299
2.73102 0.13931701 4.6190901
2.7323401 0.143151 4.6230898
3.80968 0.28637901 4.6093898
2.7988801 0.15947001 4.6203098
3.8245201 0.35699299 4.60921
2.7480099 0.18411601 4.6123099
3.81128 0.30149999 4.6012502
2.6888499 -0.64400101 4.7072701
3.7887101 0.177898 4.61027
2.6570401 -0.443616 4.68891
3.6574099 -0.93915802 4.7213101
3.0223 -0.59554899 4.6954398
3.7664101 -0.035066102 4.6332698
3.1405799 -0.61045402 4.6928101
2.69958 -0.20769 4.6575999
3.7288401 -0.38297299 4.6683102
2.9226999 -0.12551101 4.6497502
3.7869699 0.102163 4.6227002
2.92294 -0.099046499 4.6473799
2.7955 -0.46476501 4.6812401
3.24791 -0.6189 4.6900201
2.67588 -0.68344998 4.7080798
2.5225799 -0.50677598 4.6862302
2.58887 0.054365698 4.6354499
2.5902901 0.077725001 4.6328802
2.8024001 -0.23541 4.65978
2.9897799 -0.27174401 4.6637402
3.1356201 -0.28623801 4.6687298
3.7171299 -0.389644 4.6675901
2.7666199 0.23849 4.6154099
2.7226801 -0.63797402 4.6997199
2.72439 -0.635544 4.7006502
2.7279699 -0.141306 4.6485801
2.76669 -0.52590197 4.6827798
2.88274 -0.58376598 4.6793599
2.95348 -0.56363302 4.6845999
3.0245099 -0.59420502 4.6831799
2.92415 -0.528925 4.6902399
3.0422599 -0.58931798 4.68362
2.7969699 -0.44510201 4.6791601
3.03055 -0.558088 4.6907501
2.6638701 -0.36482599 4.67905
2.91359 -0.47617999 4.68435
3.6627901 -0.84875798 4.7041798
2.93434 -0.48273599 4.6784101
3.2356901 -0.63122302 4.6872802
3.09112 -0.54860502 4.6963301
2.8022001 -0.39120001 4.67168
3.1696801 -0.56091398 4.68678
3.6759 -0.79511601 4.7031999
2.80474 -0.388439 4.67308
3.1768501 -0.55901003 4.6852298
3.2530899 -0.594616 4.6806998
2.6715701 -0.314432 4.6688399
2.7261901 -0.325185 4.6654401
3.1621101 -0.50964898 4.68643
3.7107301 -0.74461401 4.6821399
2.9832799 -0.41093799 4.6823602
3.7028899 -0.70160502 4.7030001
3.2616701 -0.51854599 4.6809902
2.6732299 -0.27320799 4.6696401
3.1151299 -0.42435601 4.67975
3.7330599 -0.654787 4.6804299
2.9106901 -0.34077299 4.6680298
2.6758001 -0.25187901 4.6684599
3.08885 -0.399708 4.6807899
3.3822 -0.499989 4.6732202
3.2505801 -0.41321999 4.6839199
3.38555 -0.45858699 4.66992
3.7053499 -0.547539 4.6802902
2.95648 -0.305296 4.6683402
2.7263999 -0.22703101 4.6571498
2.95699 -0.29655001 4.6715002
3.0567601 -0.31816101 4.6659598
3.0899799 -0.323493 4.6626601
2.70401 -0.204028 4.6544199
3.71451 -0.456907 4.6458702
3.7072501 -0.445683 4.6700301
3.3978701 -0.32405299 4.6483498
2.68893 -0.155261 4.6525998
2.81987 -0.17049301 4.6526299
2.85023 -0.176881 4.6536102
3.00859 -0.20174301 4.6532402
3.2163 -0.233585 4.6554198
3.0098701 -0.097039603 4.6444502
2.70298 -0.130353 4.6423802
2.95766 -0.178409 4.6560798
3.31868 -0.24854399 4.6490102
3.37907 -0.126013 4.6399899
2.6906099 -0.117649 4.6540198
2.8889799 -0.14983299 4.6504598
2.7204499 -0.113965 4.6447001
3.7411101 -0.25612399 4.6549201
2.9230599 -0.123417 4.6501999
2.96523 -0.129521 4.6502399
3.15536 -0.156461 4.6583099
3.42172 -0.183708 4.6483002
2.9228001 -0.111398 4.6483998
3.7411399 -0.212712 4.65028
3.4094999 -0.152475 4.6451402
3.11813 -0.113465 4.6469102
3.25547 -0.12899099 4.6469202
2.7254701 -0.066223197 4.6414199
3.3558199 -0.129685 4.6356101
3.7481201 -0.170543 4.6412501
3.0940599 -0.097111702 4.64077
3.3493099 -0.123561 4.63199
3.20029 -0.102725 4.6413298
3.21193 -0.103782 4.6424098
3.77705 0.016114701 4.63866
3.75701 -0.10625 4.6375499
3.15892 -0.044343598 4.6462102
3.00313 -0.0286035 4.6273999
3.28846 -0.036195699 4.6310601
2.7046001 -0.0046637701 4.6392298
3.76636 -0.041808799 4.6339898
3.7691 -0.034193799 4.6411901
2.7025599 0.00180052 4.6424198
2.8719599 0.0117217 4.63481
3.45158 0.0050493199 4.63376
2.91085 0.038202599 4.6314902
2.7216799 0.041498799 4.6311202
2.8002999 0.043542601 4.6345701
2.9310501 0.046440199 4.6321902
3.34847 0.077805802 4.6243701
3.2219501 0.087708399 4.6192198
3.7837601 0.115673 4.6163301
3.1170199 0.101198 4.6237602
2.96614 0.095654599 4.62851
3.79176 0.16620301 4.61377
3.80755 0.18288299 4.6317501
2.8273699 0.113942 4.6273799
2.8894999 0.127519 4.6268902
2.8394101 0.12864099 4.6168799
3.8048899 0.238866 4.6106601
2.7286301 0.113344 4.62571
2.71507 0.121289 4.6312699
2.9790699 0.16495299 4.61941
2.7176199 0.139823 4.6304998
2.73225 0.141605 4.6243
3.7950001 0.29360899 4.5943398
3.3030801 0.228663 4.61165
2.96173 0.190364 4.6207299
2.85268 0.17661101 4.6227598
3.81212 0.36708701 4.5925102
2.7461801 0.183763 4.6138701
2.7711201 0.201745 4.6212702
2.89551 0.226311 4.5956602
3.7957001 0.180838 4.6135998
2.67962 -0.67327702 4.7125702
2.65762 -0.42500901 4.6859298
2.66085 -0.39168099 4.6834898
2.66309 -0.38512999 4.6736698
2.6644399 -0.352956 4.6778002
2.6661999 -0.32765999 4.6753101
2.6711299 -0.29202801 4.6740599
2.67225 -0.26964799 4.6687498
2.67365 -0.26122999 4.67138
2.6984401 -0.20394699 4.6544199
2.6845901 -0.158898 4.6566901
2.70262 -0.135038 4.6443601
2.6972499 -0.017357601 4.6290498
2.72646 0.040564701 4.6402602
2.7293999 0.066674702 4.63871
2.7244799 0.079646103 4.62392
2.7104399 0.098603196 4.6304498
2.7142301 0.121451 4.6301999
2.7700901 0.249833 4.6136699
2.85057 -0.17953999 4.6549401
3.72347 -0.342453 4.6587901
2.8473899 -0.127295 4.6415701
3.2755499 -0.51535201 4.6704798
2.90693 -0.56656098 4.7018499
3.1812 -0.72042 4.6931701
2.9801099 -0.40952599 4.6791201
2.9284301 -0.52764201 4.6923299
3.6257 -0.91745597 4.6808701
2.9588699 -0.52900201 4.6857901
2.9772 -0.54786301 4.6005802
2.9003501 -0.48396999 4.6892099
3.0861299 -0.58538002 4.6925902
3.7258799 -0.93582702 4.6919899
2.70418 -0.113695 4.62288
3.02457 -0.53341597 4.6958499
2.9249799 -0.47853601 4.67559
2.93628 -0.476702 4.6714902
2.9586501 -0.487075 4.6837301
3.08161 -0.54129398 4.6841602
2.90238 -0.43856299 4.6805
2.8092301 -0.38935 4.6746001
3.03618 -0.495942 4.6812201
3.67641 -0.79876697 4.7065201
3.06073 -0.49851301 4.6835699
2.8187399 -0.37982699 4.6738701
2.8559599 -0.39387301 4.67312
2.9202299 -0.423529 4.6795998
3.1952901 -0.55269498 4.6840901
2.8743999 -0.39809299 4.6800699
3.1050701 -0.50113899 4.67908
3.67419 -0.755247 4.7007098
3.2223201 -0.54502302 4.67766
2.9224601 -0.39652401 4.6810198
3.67292 -0.71943098 4.6961298
3.18221 -0.561463 4.68786
3.13766 -0.48179299 4.6813402
2.8252699 -0.329896 4.6681199
3.2939999 -0.52251399 4.67521
2.8401699 -0.33353701 4.65628
3.04001 -0.41358599 4.6724901
3.05231 -0.414197 4.6715598
3.4123199 -0.55564398 4.71422
2.95804 -0.37239799 4.66745
3.16553 -0.429786 4.6761098
3.69854 -0.61647201 4.6873598
3.1196699 -0.39795399 4.67834
2.8001699 -0.41611001 4.6781402
3.64908 -0.56216103 4.7019901
3.26931 -0.416098 4.67032
3.3875101 -0.45570001 4.6737199
3.7558999 -0.096079201 4.6361198
2.98997 -0.31666499 4.6805801
2.9554601 -0.30230299 4.66749
3.27033 -0.40584201 4.6695499
3.3930199 -0.44625399 4.6695499
3.5818801 -0.50852901 4.66888
3.70206 -0.51192403 4.6767902
2.8263099 -0.23955201 4.6588502
3.0896399 -0.320122 4.6553001
3.1426899 -0.331083 4.6600199
3.7065799 -0.47806999 4.6746402
3.0615001 -0.27936399 4.66747
3.53563 -0.403294 4.6747298
2.96664 -0.240483 4.6739502
3.1389501 -0.28668201 4.66574
3.1531401 -0.29087701 4.6605802
2.79601 -0.46629 4.6824198
2.8359001 -0.19700401 4.6565199
3.0290699 -0.245713 4.65557
3.4002099 -0.33352301 4.6536698
3.14413 -0.25103199 4.6549602
3.7217 -0.377049 4.6620598
3.0580699 -0.219207 4.6406102
3.09833 -0.222543 4.6518002
3.0169499 -0.200286 4.65802
3.8954401 0.526932 4.5743399
