# .PCD v0.7 - Point Cloud Data file format
VERSION 0.7
FIELDS x y z
SIZE 4 4 4
TYPE F F F
COUNT 1 1 1
WIDTH 195
HEIGHT 1
VIEWPOINT 0 0 0 1 0 0 0
POINTS 195
DATA ascii
4.3242698 0.66242999 5.9971499
4.3487301 0.68044001 6.05337
4.3284602 0.55772001 6.0495901
4.3284001 0.56035203 6.0471001
4.3343101 0.608495 6.04492
4.3471999 0.69020802 6.0402899
4.3596902 0.77752602 6.0344
4.32794 0.58919197 6.0390501
4.3303499 0.59585899 6.0394402
4.33287 0.59882098 6.0480099
4.3211002 0.554546 6.0336699
4.3250299 0.56045598 6.0324302
4.3257999 0.56904101 6.0383801
4.3614898 0.804501 6.0299802
4.33706 0.60330302 6.04813
4.3221202 0.56571698 6.0385399
4.3319702 0.58946002 6.0466499
4.3569498 0.77726299 6.0313101
4.32059 0.5 6.0511999
4.32025 0.524194 6.0448499
4.3190999 0.526618 6.0422301
4.3243299 0.54426998 6.0430198
4.3250499 0.54764199 6.0486999
4.32235 0.55341101 6.0394402
4.32305 0.56142098 6.03968
4.3285198 0.575858 6.0425601
4.3326502 0.58911699 6.0444698
4.3140302 0.62106401 6.01126
4.2768402 0.71909899 5.9355898
4.3577299 0.81402498 6.0188999
4.3070202 0.50542998 6.0325398
4.3575201 0.78405201 6.0261202
4.3331499 0.59376103 6.04319
4.3206601 0.518251 6.0517702
4.3195601 0.53105003 6.0448799
4.3206201 0.53695101 6.0437298
4.3225002 0.55136502 6.04004
4.3323798 0.58257598 6.04322
4.3352399 0.61203802 6.0419998
4.3119798 0.50047201 6.0430102
4.3165498 0.52719498 6.0438299
4.3217502 0.54098099 6.0444899
4.3241501 0.56219 6.0441298
4.33565 0.607171 6.0441899
4.3422699 0.75844902 5.9977498
4.33499 0.594064 6.04668
4.33321 0.69462502 6.0072699
4.3126101 0.73664701 5.9812102
4.3573399 0.778687 6.0290899
4.3611598 0.81304801 6.0260501
4.3267798 0.54971802 6.04882
4.3267999 0.55552602 6.0483298
4.32584 0.56305897 6.0432801
4.3326101 0.59518999 6.0469599
4.3317199 0.58370399 6.0467
4.3153701 0.53261697 6.04319
4.3179998 0.67226797 6.0068698
4.3490901 0.69109499 6.0381699
4.3351798 0.76188499 6.0106101
4.3588901 0.79091698 6.0289998
4.2581201 0.715361 5.9363198
4.3310399 0.72078001 6.02213
4.3345199 0.587605 6.0483899
4.3447599 0.688559 6.0370498
4.34764 0.690997 6.03827
4.3331099 0.71640497 6.0215998
4.3573499 0.775895 6.03124
4.3383698 0.802167 6.01722
4.32934 0.56655401 6.0497799
4.3357601 0.588871 6.0483999
4.3474598 0.69049501 6.0392799
4.3229699 0.55561 6.0475998
4.3443599 0.69295299 6.0399499
4.3253398 0.56129801 6.04737
4.3304 0.5675 6.0492101
4.33287 0.585765 6.0489502
4.3344102 0.59608799 6.0487299
4.3122501 0.73995399 5.9761701
4.3406 0.774005 6.0059199
4.3613701 0.81362402 6.02776
4.3290801 0.56803697 6.05023
4.32761 0.56528002 6.0500598
4.32548 0.54002303 6.0513201
4.3310299 0.56737101 6.04879
4.3326898 0.57211101 6.0490899
4.3371902 0.58725798 6.0483198
4.3629899 0.81346297 6.0289402
4.3599801 0.807235 6.0283699
4.3576899 0.77704602 6.0313501
4.3283501 0.53729397 6.0524402
4.3361802 0.59343898 6.0483098
4.3344798 0.59609002 6.0489502
4.3297701 0.56148797 6.0499701
4.3323498 0.56718099 6.0497298
4.3383698 0.59335101 6.0465798
4.3364701 0.59891802 6.0464101
4.3379302 0.605205 6.0457702
4.3493199 0.68935299 6.0384698
4.3612099 0.77127302 6.0321298
4.3445001 0.53711897 6.0545402
4.3391399 0.541076 6.0522499
4.3431902 0.54479402 6.0524201
4.3372502 0.567586 6.0503898
4.3351202 0.592439 6.0475001
4.3386102 0.600766 6.04672
4.3324099 0.56373602 6.05018
4.3375802 0.58173603 6.0478902
4.3597798 0.77935398 6.0302
4.36164 0.78273398 6.0307002
4.36022 0.808191 6.0293999
4.35919 0.69195801 6.04003
4.3235602 0.525635 6.0543499
4.3194299 0.53002602 6.0550098
4.32445 0.53269398 6.0559301
4.3168998 0.53892797 6.0559402
4.32126 0.49958301 6.0583301
4.3213801 0.50462198 6.05828
4.3164802 0.51044101 6.0578499
4.32019 0.52573901 6.0562801
4.32792 0.54269302 6.0538201
4.3284602 0.55396998 6.0540299
4.32901 0.563402 6.0527601
4.3298802 0.57042599 6.0522399
4.3342099 0.59715801 6.0496702
4.3331699 0.58668202 6.0506301
4.3288898 0.56815797 6.0524201
4.3213601 0.50917 6.0567899
4.34126 0.66332501 6.04391
4.3250399 0.53355998 6.0559902
4.3245802 0.50729698 6.0578098
4.3243699 0.51075798 6.0556898
4.3250499 0.51283699 6.0575199
4.3220801 0.51556599 6.0578098
4.3245902 0.53615999 6.0555501
4.3267102 0.53919899 6.0553699
4.3246698 0.54223698 6.05474
4.32651 0.54558903 6.0546198
4.3245101 0.55104399 6.05407
4.32267 0.558267 6.0532999
4.3238502 0.56332302 6.0529199
4.3303699 0.58755201 6.0503898
4.3337798 0.59223002 6.0502601
4.3454399 0.68927699 6.04211
4.35355 0.77508301 6.0341702
4.3291001 0.56524497 6.0527701
4.3236599 0.53392798 6.0553598
4.3376002 0.59563398 6.0505099
4.32061 0.53288001 6.0556898
4.3211799 0.53607398 6.0556502
4.3241801 0.56216198 6.0535498
4.3273401 0.57024503 6.0524998
4.3274498 0.57425702 6.0523
4.3326502 0.60315001 6.0492001
4.3319602 0.588714 6.0506701
4.3294301 0.56809598 6.0526099
4.33043 0.56359899 6.0529699
4.3400002 0.66400898 6.0441999
4.3538699 0.77614599 6.0339599
4.3422999 0.68574899 6.0419598
4.32476 0.56141502 6.0541501
4.3250599 0.56754702 6.0532398
4.3315301 0.57269698 6.0522099
4.3292298 0.58414799 6.0516601
4.3312001 0.58602601 6.0511498
4.3302302 0.59411597 6.04983
4.3363099 0.59248501 6.0500598
4.3333502 0.60293001 6.0497699
4.32939 0.576029 6.0499301
4.3345499 0.60190099 6.0480099
4.35958 0.783207 6.0311399
4.3537002 0.77528399 6.0338101
4.3551798 0.786641 6.03337
4.3584099 0.805179 6.0296102
4.3562198 0.78185201 6.0349998
4.3190398 0.52934903 6.04987
4.33746 0.60448599 6.0475602
4.3593702 0.786475 6.0306501
4.3329701 0.57677603 6.0502701
4.2852402 0.69956702 5.9872999
4.3160501 0.69193602 6.0028701
4.3104901 0.50383198 6.0432701
4.3348799 0.77629697 6.0062399
4.3231001 0.547921 6.0489001
4.3299499 0.578789 6.0478902
4.3315501 0.58827901 6.0504799
4.33287 0.59846199 6.0494099
4.3262401 0.54654098 6.05019
4.3298402 0.57052201 6.0493898
4.3192301 0.71460199 5.9681602
4.3355398 0.59935099 6.0486798
4.3568101 0.80389202 6.03336
4.3583798 0.79242402 6.0327301
4.3653798 0.81250501 6.02841
4.3419499 0.53353298 6.0564699
4.3548102 0.65445501 6.0444002
