# .PCD v0.7 - Point Cloud Data file format
VERSION 0.7
FIELDS x y z
SIZE 4 4 4
TYPE F F F
COUNT 1 1 1
WIDTH 149
HEIGHT 1
VIEWPOINT 0 0 0 1 0 0 0
POINTS 149
DATA ascii
3.0494499 1.03747 6.1788502
2.9449799 1.01451 6.1168699
3.0243101 1.0077 6.1177702
3.04807 1.02179 6.1455498
2.97276 1.01752 6.12569
3.1287899 1.02335 6.12958
2.9300799 1.05502 6.1750102
3.09799 1.01647 6.1421499
2.94807 1.05099 6.16853
3.0867701 1.0319901 6.1595602
2.9897299 1.03597 6.16541
3.11431 0.99440998 6.1259298
2.9138501 1.05101 6.1581402
3.03268 1.03623 6.1742902
2.9872501 1.03843 6.1533899
2.9565599 1.04146 6.1532302
2.97997 1.0224 6.08952
3.02016 1.03819 6.15522
2.96592 1.04076 6.1532102
2.94857 1.0380501 6.15872
2.9975901 1.03081 6.15418
3.0204501 1.04274 6.1733499
3.2333 1.01445 6.15797
3.0532801 1.0321701 6.1490598
3.07002 1.0319901 6.1507101
2.9805701 1.03866 6.1497698
3.03157 1.02902 6.1437602
3.0868101 1.0187401 6.1416502
2.93505 1.03435 6.1414199
3.0380099 1.02702 6.1378198
3.0299599 1.0204 6.1406999
3.06689 1.02201 6.1384501
2.95894 1.01933 6.1341701
3.11428 1.00799 6.1334
3.05794 1.00859 6.1286898
3.1266999 1.01344 6.1224298
2.95362 1.02978 6.1313901
2.9384501 1.03075 6.1307001
3.1881199 1.01652 6.0837698
2.92992 1.0304199 6.1279802
2.96826 1.02659 6.1283002
2.9481399 1.02867 6.0999298
3.21752 1.01336 6.0927801
3.08009 1.0052 6.1268201
3.11729 1.00305 6.13164
2.93753 1.03285 6.1313701
3.0784099 1.0105 6.1285901
2.95574 1.03047 6.13272
2.9179499 1.03431 6.1289001
2.9009199 1.04652 6.1322398
2.9105501 1.04559 6.1338701
3.11605 1.021 6.1426401
3.07692 1.0168999 6.14011
3.0966001 1.00675 6.12957
2.95085 1.02614 6.1332102
3.1054299 1.0097899 6.1299
3.10517 1.0120699 6.1305699
3.0522399 1.01446 6.1293402
3.0463099 1.0157 6.14044
3.1285901 1.02133 6.14217
3.0862999 1.00779 6.1269598
3.03109 1.01766 6.1293201
3.2242801 1.00168 6.1585698
3.0738599 1.00667 6.12953
3.0653701 1.00916 6.1258502
3.21314 1.02564 6.0987902
3.1347799 1.01451 6.12147
3.05914 1.0151401 6.13094
3.03666 1.01845 6.1317601
2.95292 1.0307 6.1347599
2.94591 1.0310301 6.1341701
3.0745399 1.00633 6.1245799
3.0492301 1.01061 6.1257501
3.00051 1.01752 6.1272101
2.99227 0.98924398 6.1811399
3.2772601 1.01809 6.08882
3.0954599 1.12704 6.151
3.0913301 1.00722 6.1298499
3.0743201 1.00818 6.1284099
3.0853601 1.01117 6.1289201
3.03122 1.0173 6.13416
2.9693699 1.02174 6.1368499
3.0708101 1.00688 6.1275401
2.9417 1.02494 6.1315799
2.93454 1.0268 6.12673
2.92348 0.98677701 6.1023598
3.0112901 1.00369 6.1224499
3.01613 1.00583 6.1047001
3.0293901 1.02687 6.1589699
3.07478 1.0185 6.1721001
3.12516 1.00711 6.1805
3.13695 1.01078 6.1761098
3.15307 1.01215 6.1635299
2.9291401 1.04804 6.11836
3.1527801 0.98881602 6.12919
3.0016999 1.00424 6.1233602
2.9405899 1.04643 6.1185002
2.9205501 1.03072 6.1107702
3.0141301 1.0467401 6.1461401
3.0458901 1.03061 6.1234002
3.07356 1.03295 6.1300602
3.0374401 1.0426 6.1344199
2.9384501 1.02352 6.1045299
3.03162 1.0021 6.1202598
3.1066899 0.99448198 6.1029501
3.0234499 1.0348099 6.1240401
3.0894599 1.0279 6.1248598
2.9378099 1.0206701 6.10461
3.0684199 1.02955 6.1248498
3.1043899 1.0343699 6.1429701
2.98404 1.051 6.1410999
2.99738 1.04768 6.1372399
3.0625999 1.0311 6.1259198
2.99 1.03961 6.1267099
2.95753 1.0427099 6.1244702
2.9526701 1.01665 6.11026
2.97366 1.02152 6.1233902
2.99793 1.0483 6.1399899
3.0662601 1.08508 6.23101
2.9823301 1.04001 6.1216502
2.97772 1.02139 6.11971
3.0966699 1.01136 6.1203299
3.0875101 1.03838 6.1386299
2.9820299 1.01538 6.0812998
3.0599699 1.0258501 6.1203599
2.9433601 1.04417 6.1230798
2.9224999 1.0279 6.1101198
2.95978 1.03984 6.1268301
2.93804 1.02441 6.1065102
2.9209499 1.027 6.1185498
2.9240201 1.03011 6.11726
3.04691 1.01405 6.1223698
2.94858 1.04474 6.1272998
2.9165101 1.03662 6.1141
3.10337 1.02839 6.1750998
2.9486599 1.02338 6.10571
3.19767 1.017 6.10254
2.93624 1.026 6.1063099
3.02299 1.00904 6.1214199
3.1889801 1.02096 6.1061401
2.96944 1.0306799 6.1269202
3.13744 1.02003 6.07129
2.9133401 1.03721 6.1160998
2.9584799 1.02802 6.1208601
2.9528601 1.02744 6.1247001
2.98949 1.02314 6.1216898
3.0183001 1.0112799 6.1205101
2.95643 1.02396 6.1135101
2.9172399 1.02957 6.1182799
