# .PCD v0.7 - Point Cloud Data file format
VERSION 0.7
FIELDS x y z
SIZE 4 4 4
TYPE F F F
COUNT 1 1 1
WIDTH 372
HEIGHT 1
VIEWPOINT 0 0 0 1 0 0 0
POINTS 372
DATA ascii
7.8573599 0.44051 6.43542
7.9965 0.480259 6.5982699
7.7088599 0.551615 6.5262198
7.6838002 0.51363301 6.4134202
7.7852001 0.51359499 6.50244
7.2868299 0.51520503 6.45087
7.7499599 0.489232 6.4614902
7.7476902 0.49126899 6.45821
7.9620099 0.53622597 6.55375
7.6234198 0.48837 6.4053102
7.3422499 0.51526701 6.3963099
7.85671 0.39881301 6.5598798
7.8010302 0.49588799 6.4338598
7.65487 0.532013 6.5043802
7.6628199 0.51002699 6.4242301
7.68151 0.49839699 6.3694301
7.7427001 0.48561099 6.30971
7.89537 0.40685099 6.4950099
7.8429399 0.46418801 6.4358802
7.7880602 0.398617 6.2836399
7.7698598 0.51116401 6.4990602
7.7341099 0.53903401 6.4699001
7.6981401 0.497987 6.35886
7.7644801 0.466977 6.2679501
7.6939902 0.452052 6.2382102
7.69383 0.52045703 6.4681802
7.6635599 0.53180301 6.5472898
7.35744 0.52015901 6.5864301
7.8500099 0.46566501 6.4298601
7.3137598 0.52359599 6.5458999
7.6772399 0.50084698 6.3523598
7.7708502 0.50291902 6.4850702
7.7759099 0.449972 6.2811999
7.6919298 0.52125299 6.4172902
7.7096601 0.47298199 6.3127298
7.7715602 0.45688701 6.2761002
7.7161102 0.54053998 6.5248098
7.8557501 0.38433999 6.4075899
7.3076701 0.52112502 6.51302
7.8898602 0.376086 6.2405601
7.7531199 0.51190102 6.49018
7.6999502 0.52492702 6.4570398
7.6919498 0.51152498 6.3766398
7.7849302 0.455975 6.2237401
7.76862 0.46485001 6.2398901
7.8019099 0.44511101 6.3043499
7.7667599 0.45602 6.2729101
7.6852498 0.511006 6.3959899
7.3082099 0.508587 6.4985399
7.7817101 0.45797399 6.2768898
7.81075 0.45384601 6.2688799
7.77318 0.470265 6.2673202
7.79984 0.45840299 6.2289
7.7649298 0.45475301 6.13202
7.76928 0.51219398 6.4896798
7.7637501 0.46329701 6.2383599
7.5978999 0.50907397 6.4605398
7.3523898 0.52110201 6.41223
7.72333 0.538176 6.46663
7.6837001 0.50232899 6.3527098
7.7627101 0.46191901 6.2761102
7.7820401 0.466203 6.1834798
7.7775302 0.46556601 6.1558099
7.6746502 0.51414198 6.4390101
7.7822599 0.455973 6.3418498
7.7635798 0.44635001 6.2783699
7.67413 0.40647599 6.3134899
7.81076 0.46027699 6.2144499
7.6922302 0.524809 6.4425101
7.7540698 0.49950999 6.4612799
7.7753901 0.45442599 6.2823801
7.7809 0.457773 6.3466601
7.6574798 0.52765101 6.4896598
7.7202301 0.49893999 6.4663801
7.8474898 0.47222701 6.4739199
7.4370499 0.52812099 6.8730898
7.7455201 0.49351901 6.4615002
7.65066 0.50391001 6.4295101
7.7385302 0.46364099 6.2772899
7.85115 0.44794101 6.5816498
7.7859001 0.49159399 6.4490099
7.7999201 0.42175299 6.27776
7.78758 0.49453601 6.3509498
7.7818999 0.55001801 6.4093399
7.4145899 0.57643902 6.6420002
7.6875601 0.51914799 6.4180398
7.763 0.47216299 6.2607002
7.7677102 0.467318 6.2639599
7.8242502 0.47197199 6.1559401
7.7509899 0.459876 6.20924
7.7410798 0.455432 6.2315698
7.7776399 0.44019499 6.2332602
7.7948899 0.46885201 6.3702002
7.7279 0.497437 6.4630799
7.8078699 0.488188 6.4438801
7.7435498 0.459142 6.2695599
7.8119998 0.46082801 6.1957598
7.7989202 0.461629 6.1484098
7.7309299 0.461023 6.2660799
7.6774998 0.50682002 6.4349298
7.7565098 0.47885901 6.4360099
7.68609 0.493155 6.4460902
7.7599201 0.46500099 6.2561002
7.7716298 0.43624401 6.21593
7.7439799 0.44415799 6.2054501
7.8681898 0.401366 6.60252
7.38553 0.52182698 6.84869
7.7780399 0.47026801 6.4121599
7.7737002 0.44813001 6.1856399
7.64294 0.497421 6.421
7.7670498 0.444895 6.2693
7.3130698 0.51472002 6.5093298
7.65483 0.49725199 6.4352102
7.7318602 0.45663899 6.2640901
7.3098798 0.517699 6.4934201
7.62325 0.48914999 6.4145999
7.31007 0.527372 6.5163398
7.7726598 0.46342501 6.40133
7.8076501 0.44180599 6.2104998
7.3692799 0.51362401 6.4938998
7.7167401 0.48374701 6.4393501
7.7493 0.442799 6.20082
7.7722502 0.44676399 6.1986599
7.3652501 0.51287597 6.52631
7.71351 0.464003 6.20087
7.7820601 0.462203 6.3529401
7.3353601 0.49724999 6.4667101
7.7667899 0.44938299 6.2677898
7.7479701 0.46120501 6.2446599
7.7803502 0.44136399 6.2305899
7.6983099 0.49447 6.4433298
7.9197898 0.415382 6.5012598
7.7329102 0.440083 6.1231198
7.7562799 0.44502401 6.2017298
7.7680202 0.43968299 6.1989799
7.6992102 0.494012 6.44382
7.7249899 0.48879299 6.4437699
7.7855902 0.46404201 6.3537502
7.37641 0.56903303 6.7123098
7.3906102 0.52101201 6.4953699
7.3313398 0.52746099 6.5322499
7.6768098 0.466694 6.4230499
7.7393298 0.46245399 6.25739
7.7023802 0.42729101 6.10849
7.3543401 0.50553799 6.5096998
7.30654 0.48776999 6.3755698
7.7670898 0.44997501 6.26689
7.7049999 0.49676701 6.4447198
8.0093203 0.439064 6.6405602
7.7895098 0.46744201 6.4047298
7.31213 0.50858903 6.45155
7.3309598 0.52514797 6.5197101
7.7613401 0.454128 6.2755699
7.3330002 0.52047598 6.4493399
7.78374 0.44812101 6.3345499
7.6986098 0.49098799 6.4450402
7.7546401 0.46426001 6.2652102
7.7649798 0.43456301 6.1970801
7.79526 0.44870099 6.3322902
7.79142 0.44363999 6.36338
7.3674302 0.50703102 6.4747
7.7776599 0.42515999 6.2079501
7.80369 0.47094899 6.4112701
7.33459 0.52263403 6.4878302
7.7944002 0.45762399 6.3405399
7.8696699 0.43821099 6.2902002
7.7900701 0.46166599 6.3491998
7.7780399 0.48978499 6.4369302
7.3765898 0.520064 6.5322599
7.3288102 0.56038898 6.4865599
7.3712001 0.513677 6.4862499
7.6795001 0.47418699 6.2718501
7.6415401 0.48470399 6.3119302
7.3695002 0.51068598 6.5092902
7.3347902 0.52849197 6.5276499
7.31493 0.51177901 6.4436998
7.32868 0.515508 6.4701099
7.7806301 0.439643 6.2209001
7.7698598 0.43404499 6.3364501
7.8498802 0.42925301 6.2565498
7.7672801 0.44719601 6.1901698
7.7736602 0.454916 6.4035501
7.7379799 0.45230001 6.2477398
7.6805401 0.486065 6.2870698
7.2975101 0.53830498 6.48314
7.3234301 0.51521701 6.4558201
7.3285599 0.51871097 6.4769001
7.3695002 0.51004797 6.4705801
7.6849298 0.497715 6.42452
7.7114601 0.460471 6.2564402
7.3109002 0.50091702 6.3889098
7.7864599 0.44103 6.2003498
7.6466899 0.481774 6.3043299
7.7721801 0.45361701 6.3256798
7.7849998 0.46092001 6.3872199
7.64994 0.48074499 6.2978201
7.6357098 0.49381399 6.3548398
7.3674302 0.51277399 6.5548401
7.3572202 0.520338 6.5856099
7.3325801 0.52509201 6.5002899
7.3185201 0.51305801 6.4415998
7.7346802 0.457268 6.2414999
7.8589501 0.43617401 6.27281
7.36692 0.50744098 6.4679699
7.6832199 0.494194 6.4235601
7.7405601 0.453253 6.2060299
7.7288899 0.45398399 6.2245898
7.3299098 0.51102799 6.4102101
7.3396301 0.526357 6.53122
7.3335299 0.52783197 6.5444899
7.7816401 0.470494 6.4083099
7.7492399 0.44697201 6.2016902
7.3291402 0.52158701 6.4741402
7.73318 0.44774401 6.2262998
7.3322101 0.525657 6.5275302
7.87113 0.46815601 6.3290401
7.7477198 0.45398599 6.1822801
7.7813401 0.443066 6.3579602
7.77596 0.452382 6.3343
7.7309599 0.474525 6.29287
7.7999401 0.49097601 6.42521
7.7446198 0.49794599 6.44102
7.3656402 0.50689101 6.4524999
7.37674 0.51537102 6.47788
7.36869 0.513524 6.5148702
7.3239999 0.50977898 6.40938
7.3326201 0.52199501 6.4869399
7.3076901 0.51905698 6.4443698
7.67383 0.494569 6.4180102
7.7357998 0.44506899 6.19033
7.6205401 0.48012701 6.3309002
7.6493602 0.48761699 6.3064098
7.74159 0.44335201 6.1847901
7.3337202 0.50956202 6.41225
7.7781 0.450762 6.1906099
7.7556801 0.40483701 6.23247
7.7332101 0.465727 6.1937599
7.7446299 0.45563501 6.2709899
7.7941599 0.470505 6.3558302
7.7480602 0.45045 6.32021
7.7929201 0.458783 6.35147
7.72963 0.49035001 6.4321098
7.6737199 0.48996499 6.4201102
7.78444 0.44506201 6.1957898
7.7544799 0.455441 6.1251602
7.7673802 0.43895301 6.2432699
7.71106 0.457342 6.2487998
7.6784701 0.47713 6.26931
7.7227998 0.490504 6.4354801
7.6399698 0.48071101 6.3195601
7.63831 0.488819 6.32651
7.8201299 0.427239 6.23803
7.6367102 0.49354601 6.37889
7.7320499 0.445254 6.1936402
7.7112198 0.46312901 6.21173
7.8505201 0.43553701 6.2684302
7.73419 0.440137 6.18013
7.7408099 0.43989599 6.3030601
7.7734399 0.468777 6.40061
7.68854 0.46801299 6.2621799
7.7604399 0.48774099 6.4259901
7.6563101 0.47177801 6.27074
7.6581101 0.48508099 6.2928901
7.63061 0.48469901 6.3264899
7.78227 0.437186 6.2111201
7.7765999 0.44225901 6.2469401
7.73248 0.44247499 6.1854701
7.7403498 0.48717701 6.4292302
7.7200999 0.436611 6.2881799
7.71419 0.45907599 6.2503099
7.7307601 0.444794 6.1908002
7.8218799 0.42982301 6.2358398
7.6560001 0.48035601 6.2871799
7.63622 0.48212701 6.30792
7.7939 0.49826699 6.4954901
7.6490598 0.48078701 6.2940898
7.7328601 0.48742101 6.4302101
7.7815399 0.46526301 6.3413
7.77671 0.44172099 6.36058
7.7231498 0.43257201 6.2794499
7.7212601 0.450569 6.2262902
7.7607698 0.43906799 6.1875
7.7856998 0.44396201 6.1919999
7.8554301 0.440855 6.2843299
7.8514299 0.437433 6.2729001
7.7782998 0.446143 6.2481799
7.7809 0.43656901 6.21313
7.3021998 0.49548301 6.3835301
7.3271599 0.51998001 6.4646301
7.7533698 0.47732201 6.4246402
7.7758098 0.46878201 6.4104199
7.7066898 0.453105 6.2389798
7.7286 0.45651701 6.1988301
7.7820501 0.44147101 6.2245998
7.71562 0.464113 6.2255201
7.7048702 0.45978999 6.2495699
7.71382 0.458967 6.2467198
7.7908602 0.45980901 6.3646302
7.7906098 0.46305799 6.3782001
7.7524099 0.444383 6.2493501
7.8213 0.46453199 6.3428898
7.7186699 0.43882599 6.2754002
7.7695599 0.43831801 6.36169
7.8304 0.467392 6.34131
7.7236199 0.444491 6.20186
7.7629499 0.446569 6.25176
7.7845998 0.436712 6.2216001
7.85395 0.45447299 6.3065701
7.74577 0.45499301 6.1321902
7.7416101 0.438636 6.18084
7.8526502 0.436524 6.2737002
7.75032 0.455273 6.1280799
7.3317099 0.52183503 6.5114999
7.3236899 0.53525901 6.51579
7.3171101 0.539864 6.44979
7.7871099 0.448154 6.3214998
7.3734198 0.51857501 6.5159202
7.3747902 0.52005899 6.5478802
7.32761 0.515468 6.4633899
7.3260298 0.51525801 6.4232702
7.75212 0.44228899 6.3243399
7.6470799 0.48293599 6.30581
7.6659098 0.48879901 6.4173698
7.6370001 0.49086601 6.3352299
7.7782502 0.47071201 6.4037499
7.76123 0.48545599 6.42169
7.67276 0.47808099 6.2743602
7.7202802 0.45314199 6.2358198
7.7233601 0.44502899 6.2157302
7.78616 0.43860999 6.2135801
7.75032 0.45379299 6.1330299
7.7351499 0.45390099 6.1626301
7.7271299 0.44334999 6.1944799
7.7375202 0.435514 6.1810098
7.8552399 0.45799899 6.31141
7.8503098 0.43865001 6.2918
7.8098302 0.43303201 6.2316198
7.7308102 0.45925099 6.1539102
7.83144 0.44177401 6.3232799
7.75738 0.464228 6.1315498
7.7854199 0.43773299 6.1954098
7.7825999 0.43656999 6.2118402
7.7547698 0.44926801 6.1183701
7.8495102 0.43483201 6.2687101
7.7498202 0.44919401 6.11726
7.7519598 0.45398501 6.12467
8.0000296 0.44476801 6.6345501
7.3400002 0.52632302 6.5341702
7.7744298 0.45135599 6.3289499
7.3330202 0.51586598 6.4426198
7.3783898 0.51523602 6.5096402
7.7686501 0.43547601 6.2560701
7.7211099 0.48690501 6.4410501
7.6886702 0.48862401 6.4362202
7.7727399 0.46463299 6.4017301
7.72263 0.46029001 6.22999
7.7164102 0.458956 6.2428098
7.7905102 0.44007999 6.2098298
7.8471198 0.43436599 6.26332
7.84866 0.42757499 6.2710199
7.7305398 0.48866001 6.4324598
7.6416502 0.48697099 6.31463
7.6336999 0.49131101 6.3468599
7.7044902 0.47216401 6.2609401
7.7841702 0.45794001 6.3736701
7.8220901 0.45917201 6.33566
7.7255902 0.44633499 6.2069602
7.7206402 0.44957799 6.2224598
7.7895002 0.43532401 6.1984
7.7328 0.461853 6.1753001
7.85322 0.447487 6.2788501
7.8617201 0.44658801 6.2971301
