# .PCD v0.7 - Point Cloud Data file format
VERSION 0.7
FIELDS x y z
SIZE 4 4 4
TYPE F F F
COUNT 1 1 1
WIDTH 70
HEIGHT 1
VIEWPOINT 0 0 0 1 0 0 0
POINTS 70
DATA ascii
4.4976602 -0.52512097 4.6508098
4.51159 -0.50969303 4.6687298
4.5148501 -0.46364999 4.6652999
4.5207901 -0.42940801 4.6667299
4.51794 -0.45851699 4.66501
4.5126901 -0.48546401 4.6683302
4.5131502 -0.49815801 4.67167
4.5141301 -0.478508 4.6702199
4.5161099 -0.45361 4.66539
4.5187101 -0.43170899 4.6621399
4.51052 -0.50849402 4.6724
4.51794 -0.448015 4.6631498
4.51759 -0.42853901 4.6631598
4.5137901 -0.47722501 4.66888
4.50986 -0.50389397 4.6704898
4.5104098 -0.49355301 4.6694498
4.5156698 -0.454153 4.66401
4.5171499 -0.425549 4.6610498
4.51476 -0.463166 4.66537
4.5122399 -0.489021 4.6686201
4.5123401 -0.479534 4.6674299
4.5102601 -0.52280802 4.67414
4.5085602 -0.50735497 4.6715102
4.5123401 -0.47282699 4.6669102
4.5146799 -0.44788799 4.6645899
4.5082798 -0.479736 4.6596098
4.5145102 -0.466456 4.6628499
4.5144401 -0.45496899 4.6652098
4.51475 -0.44605201 4.6621199
4.5164399 -0.436349 4.6596198
4.5115399 -0.46615499 4.6600599
4.5120101 -0.457683 4.6600299
4.5133801 -0.45492801 4.6595101
4.5152001 -0.43889701 4.6595101
4.5163598 -0.434477 4.6573601
4.5170102 -0.42739299 4.65874
4.5153399 -0.43005499 4.6560998
4.5221601 -0.40388599 4.6615801
4.5110402 -0.48341101 4.6669302
4.5086899 -0.51191998 4.6707702
4.51121 -0.49125299 4.6680899
4.5132198 -0.46540099 4.6640601
4.5156999 -0.43996999 4.6608601
4.5174098 -0.45211899 4.66394
4.5195699 -0.440772 4.6628599
4.5018902 -0.49931601 4.65557
4.4963498 -0.510216 4.6581602
4.5023599 -0.45759299 4.65733
4.5071001 -0.47476399 4.65171
4.5054898 -0.43712801 4.6547198
4.4981599 -0.51094699 4.6540899
4.4994798 -0.50210398 4.65379
4.5061598 -0.42000499 4.65558
4.4952998 -0.522901 4.6572499
4.4949498 -0.51872802 4.6552
4.4980202 -0.50629699 4.6584501
4.5079398 -0.459703 4.6525602
4.4973898 -0.50177002 4.6568398
4.50454 -0.42636099 4.6566401
4.4954901 -0.52657402 4.6575699
4.5001001 -0.49018499 4.6585798
4.50667 -0.437693 4.6543102
4.4985299 -0.51884502 4.6521001
4.50597 -0.45379999 4.6527801
4.4963799 -0.52032697 4.6564102
4.5087199 -0.43336901 4.6546502
4.4976702 -0.51409298 4.6581001
4.4825001 -0.59441501 4.6726899
4.4974198 -0.50759703 4.6542201
4.4951901 -0.52114397 4.6571002
