# .PCD v0.7 - Point Cloud Data file format
VERSION 0.7
FIELDS x y z
SIZE 4 4 4
TYPE F F F
COUNT 1 1 1
WIDTH 1620
HEIGHT 1
VIEWPOINT 0 0 0 1 0 0 0
POINTS 1620
DATA ascii
5.9985299 -0.96074802 3.1041901
6.0420198 -0.92583901 3.26998
5.9962001 -0.90110898 3.1758201
6.0562 -0.886334 3.2661901
6.0313401 -0.688438 3.0720799
6.0901799 -0.66874099 3.23878
6.06985 -0.62037402 3.2385001
6.0400701 -0.61703801 3.1396899
6.0633602 -0.56747901 3.1380799
6.0669599 -0.52941698 3.13322
6.1047802 -0.48541701 3.21893
6.08114 -0.42144701 3.1055501
6.1061001 -0.41062301 3.2144599
6.0956998 -0.37989399 3.0550101
6.0383902 -0.47554299 3.0683701
6.09266 -0.339371 3.0557499
6.08746 -0.319924 3.10062
6.1223898 -0.29941499 3.20453
6.11867 -0.25996301 3.0383899
6.1298299 -0.087499298 3.0223
6.09093 -0.082258597 3.0864301
6.1511998 0.128672 3.1721001
6.18751 0.242121 3.0034599
6.1904702 0.256309 3.15377
6.17239 0.32485899 2.98264
6.1810799 0.17542499 3.0065
6.0180898 -0.0144969 3.08986
6.1287398 -0.19518 3.0320699
6.1215701 -0.34452999 3.2056701
6.1907902 0.354249 2.9500599
6.2019401 0.20984399 3.15361
6.18472 0.20126399 3.15746
5.9762702 -0.93792498 3.19329
6.1641598 -0.0882072 3.1832299
5.9816799 -0.99289399 3.1877799
6.0317402 -1.00841 3.2788899
6.10601 -0.68218899 3.0190899
6.0205002 -1.12594 3.12659
5.9790101 -1.28203 3.3155401
5.9983201 -1.16774 3.0941
5.9702101 -1.31028 3.1753299
6.0464301 -0.54829001 3.0571699
6.0699301 -0.773224 3.2474699
6.0211701 -0.75672501 3.15605
6.0770102 -0.59853101 3.2300999
6.0273499 -0.521577 3.0746601
6.0058599 -1.14535 3.29618
6.0025001 -1.17108 3.30193
6.0191202 -1.13526 3.29599
5.9895 -1.18107 3.302
6.0159202 -1.05422 3.1194699
6.0128498 -1.06143 3.08529
6.0562401 -0.86400098 3.2587299
6.07165 -0.80939299 3.25618
6.0099001 -0.80625898 3.1652701
6.0784302 -0.71654397 3.24231
6.03198 -0.70640999 3.1472299
6.0561199 -0.68834603 3.14838
6.0945601 -0.60917598 3.2315199
6.0583901 -0.50255698 3.05125
6.0844498 -0.47512099 3.0622699
6.1107998 -0.44005901 3.2139499
6.1054702 -0.34170499 3.2091
6.1571598 -0.070245303 3.17975
6.1461501 -0.023787901 3.17889
6.1648502 0.022766 3.1718099
6.1960101 0.332443 2.9802799
6.1714001 0.369838 3.0099499
6.1806002 0.315575 2.9809
6.1865902 0.263776 2.9865999
6.1735301 0.186873 2.9946301
6.1768799 0.12996399 2.99139
6.1651902 -0.021665599 3.00473
6.1420698 -0.177607 3.1909299
6.11728 -0.380788 3.21035
6.1002698 -0.404771 3.0516801
6.0604401 -0.88776702 3.05778
6.19348 0.250949 3.15187
6.1942 0.211796 3.15359
6.1777401 0.100474 3.1657801
6.1722598 0.038617998 3.1685801
6.1809602 0.030443501 3.16905
6.0720501 -0.64925498 3.2337501
6.0493202 -0.65254402 3.0610099
6.1633601 -0.016193399 3.1752
6.1415 -0.105402 3.02054
6.12816 -0.163303 3.0317199
6.0403399 -1.01667 3.277
6.1397901 -0.29208401 3.1993001
6.1247501 -0.298161 3.2014301
6.0204 -1.12932 3.0767801
5.9766502 -1.29238 3.3158
6.00387 -1.12446 3.13462
6.0907602 -0.600429 3.2325699
6.0016899 -1.2064 3.09302
5.9851298 -1.19112 3.09904
5.95713 -1.0843 3.1445501
6.0782599 -0.76708502 3.247
6.1209602 -0.70746398 3.00088
6.14433 -0.66288197 2.9870901
6.0955901 -0.433772 3.0583401
6.12609 -0.259096 3.0357101
6.1553102 0.0017098 3.01492
6.1832199 0.12839 2.9972799
6.0708499 -0.79470199 3.2490399
6.1965399 0.323026 2.98036
6.1293101 -0.668419 2.98874
6.14748 -0.238068 3.19101
6.0082002 -1.19398 3.08936
6.03022 -1.05435 3.10813
6.1262999 -0.32831699 3.20471
6.03829 -0.97934598 3.27493
6.0412998 -0.97324198 3.27354
6.13025 -0.373864 3.2049799
6.1243801 -0.38843799 3.2075801
6.11378 -0.40354201 3.0470099
6.1175799 -0.447945 3.2140901
6.0689602 -0.563362 3.12094
6.02246 -0.78120399 3.15785
6.0806599 -0.868155 3.1287301
6.12641 -0.33577299 3.2037201
6.145 -0.16962101 3.0213101
5.9885702 -1.28171 3.31375
5.8971801 -1.30193 3.3125801
5.9822302 -1.30039 3.3174
5.9358001 -1.27758 3.1665101
5.98912 -1.22112 3.3046401
6.0004101 -1.18322 3.30075
6.02845 -1.13696 3.29441
6.0130301 -1.08515 3.164
6.0425401 -0.99961901 3.06429
6.0808301 -0.76996899 3.24526
6.0959902 -0.72899997 3.23874
6.1086102 -0.73059797 3.0102301
6.0690498 -0.69523001 3.1359799
6.04849 -0.62984699 3.13147
6.05128 -0.59170002 3.1336
6.0615001 -0.83267301 3.0878699
6.0704899 -0.455111 3.0450101
6.09725 -0.41853899 3.0569999
6.10917 -0.34722799 3.0452199
6.13236 -0.28905499 3.19696
6.15062 -0.27477801 3.1939299
6.1277199 -0.25078601 3.19556
6.1612701 -0.090012103 3.17853
6.1800098 0.0120258 3.1661401
6.178 0.145374 2.99282
6.19452 0.197602 2.9846301
6.2142901 0.334445 2.9730999
6.1187501 -0.33381501 3.2023101
6.1666899 0.134903 3.16202
5.9857302 -1.29533 3.3155401
6.17629 0.073212802 3.16643
5.9844599 -1.31091 3.17011
6.1686802 -0.0123963 3.1721399
5.96738 -1.1038001 3.1238201
6.0117302 -1.08003 3.0901501
5.9857702 -0.987602 3.18696
6.1909099 0.22332101 3.15294
6.03439 -1.0111099 3.2783899
6.16008 -0.236845 3.1909699
6.1325102 -0.26776999 3.0348201
6.1221499 -0.417548 3.2086999
6.0630898 -0.66979802 3.04182
5.9970198 -1.11989 3.09252
6.0383701 -0.83603698 3.06267
6.1192002 -0.23851199 2.99333
6.0617599 -0.80383301 3.04333
6.0679898 -0.607364 3.0397401
6.00808 -1.13167 3.08706
6.0117602 -1.00414 3.0832
6.0605202 -0.62981302 3.0480399
5.9902601 -1.26841 3.09268
6.0675998 -0.57555097 3.0414901
6.0508599 -0.73789799 3.05674
5.93575 -1.27574 3.16359
6.06112 -0.71198797 3.24809
5.9735799 -1.04957 3.1536
6.1013598 -0.39364499 3.2155399
5.90694 -1.1525 3.24686
6.1511302 0.090719499 3.1724601
6.0722699 -0.65764803 3.2408199
6.08393 -0.60300899 3.0344901
5.99787 -1.09882 3.2936699
6.0300899 -0.67239398 3.14031
6.03618 -0.94179702 3.27542
6.0086298 -0.98181701 3.2801299
6.1796198 0.232207 3.1570599
6.0780301 -0.65916598 3.24227
6.0739398 -0.458372 3.1027999
6.0785398 -0.58715397 3.2351999
6.1575599 0.233807 3.1624
6.1398802 -0.073509201 3.18735
6.1676998 0.14466099 3.1654899
6.1703701 0.36468801 3.0070601
6.1639099 0.096777298 3.1702399
5.9886398 -1.2139 3.3057699
6.0072999 -1.09474 3.2934599
6.1715798 0.071609803 3.17117
5.95048 -1.3198 3.31271
5.90448 -1.2998101 3.31236
6.1614299 -0.030018499 3.1807799
5.9980202 -1.31349 3.16945
5.9685702 -1.29726 3.1710501
6.00735 -0.74882901 3.16013
5.9732699 -1.24861 3.30831
5.99189 -1.2210701 3.30724
6.0009098 -1.20434 3.3048401
6.00494 -1.1209 3.2943599
5.9933801 -1.1893899 3.3027799
6.13515 -0.126689 3.1909001
6.0107999 -1.07617 3.2897401
6.1819901 0.28068799 3.1535299
6.1851101 0.26430601 3.15363
6.1789899 0.172057 2.9821501
6.1223698 -0.23206 3.2008901
6.1153998 -0.207057 3.0332301
6.1150098 -0.230308 3.2006099
5.95365 -1.03423 3.20854
6.0415001 -0.64575499 3.1526799
5.9596801 -1.0157 3.2019899
6.0492902 -0.80758297 3.25736
6.1950598 0.287247 3.1512201
6.0419898 -0.810112 3.1487701
6.0285902 -0.94683599 3.27388
5.95755 -0.92218202 3.20276
6.1837201 0.29222599 2.97856
5.9798398 -0.86495602 3.1861899
6.04743 -0.88322598 3.0868101
6.0166502 -1.13413 3.12205
5.9984798 -0.79052597 3.1702199
6.05303 -0.780514 3.2553101
6.1191001 -0.093588099 3.1926701
6.0493398 -0.701877 3.2474101
6.0278702 -0.69443101 3.14328
6.0369101 -0.65955901 3.15272
5.94665 -1.31242 3.31178
6.1203299 -0.35990199 3.2089
6.0521698 -0.55574 3.12466
6.12782 -0.225035 3.1981499
6.0881901 -0.550044 3.0545199
6.08709 -0.51622599 3.2275901
6.06107 -0.47184601 3.1105599
6.0938802 -0.48818099 3.22293
6.10498 -0.36897999 3.04427
6.1057401 -0.36473101 3.21298
6.1235199 -0.32376099 3.2093699
6.1278501 -0.20235699 3.1974001
6.1378598 -0.142506 3.1912799
6.1420999 -0.050218001 3.1847
6.0837202 -0.53755999 3.23122
6.1790299 0.198039 2.9811399
6.1497202 -0.035647102 3.1821201
6.1982698 0.232361 2.9724801
6.0845799 -0.46253601 3.0597601
6.0657802 -0.62209302 3.1170299
5.92067 -1.3109 3.31497
5.9850798 -1.3169301 3.31898
5.98352 -1.29633 3.3132901
6.0737 -0.552665 3.1363599
6.01615 -1.24755 3.3028901
6.0465202 -1.05186 3.2711999
6.0468302 -1.04439 3.27158
5.98736 -1.03299 3.1052599
6.1378498 -0.452034 3.19965
6.0705299 -0.87705201 3.2415299
6.0805802 -0.84879798 3.2455001
6.1676402 -0.223048 3.1777301
6.0799298 -0.82565397 3.2478299
6.0521698 -0.82605702 3.0898299
6.0931001 -0.791951 3.24107
6.1122899 -0.59312397 3.21611
6.09126 -0.47033101 3.09993
6.10425 -0.71707702 3.0146301
6.1149101 -0.54789299 3.2179101
6.1311598 -0.474213 3.20278
6.08009 -0.47743201 3.03739
6.0942602 -0.38391501 3.0650201
6.1432199 -0.36036199 3.1846001
6.15552 -0.31536999 3.18852
6.158 -0.26904401 3.1811399
6.0208201 -0.80155402 3.1568699
6.1859498 -0.0136234 3.1625099
6.1999502 0.0420103 3.1565199
6.2082 0.22719599 2.99298
6.2230301 0.304452 3.1320701
6.19802 0.213508 3.14377
6.1395502 0.098638497 3.0406499
6.0569601 -0.83210599 3.05478
6.10425 -0.76483899 3.23523
6.1289601 -0.13032 3.03845
6.1698899 -0.177269 3.1798799
6.1213698 -0.178087 3.0404799
6.0780201 -0.507635 3.10748
6.0567498 -0.58131802 3.12815
6.0051599 -1.27815 3.30811
6.0019002 -1.2151099 3.1447999
6.1998301 0.119476 3.1536
6.15343 0.119656 3.01998
6.1471801 -0.32234499 3.1848199
5.9561701 -1.31285 3.31444
5.9545999 -1.09162 3.1372199
6.1687002 0.227557 3.0062599
6.0692701 -0.485452 3.11607
5.9559202 -1.13056 3.15571
5.9587102 -1.05532 3.14011
5.9750099 -0.92205602 3.2184801
6.0560598 -0.85862398 3.2664599
6.0464602 -0.54869998 3.14025
6.1533599 -0.133183 3.1872101
6.0226402 -0.785173 3.1619999
6.1387701 -0.238314 3.2006099
6.0743699 -0.57227802 3.0457301
6.13061 -0.050462902 3.04544
6.0985198 -0.53030401 3.22086
6.0713801 -0.533149 3.0513
6.1023502 -0.49415201 3.22036
6.0574098 -0.51277202 3.1526899
6.1054602 -0.487014 3.22754
6.06919 -0.74804503 3.2552299
6.0778599 -0.44919401 3.0819499
6.0991302 -0.34382299 3.0613
6.0996599 -0.32853401 3.06198
6.09412 -0.30402201 3.02789
5.9117699 -1.30722 3.3184199
6.1749902 0.049101599 3.1734099
6.1689301 0.113036 3.0136001
6.1943898 0.139052 3.1452999
6.1904802 0.34130001 2.9581001
6.0668001 -0.60941601 3.0496299
6.0483899 -0.628851 3.1612999
5.9799399 -1.29221 3.31915
6.0019302 -1.14035 3.2962899
6.0122099 -1.02957 3.3043799
6.03896 -1.00738 3.2866001
6.0338101 -0.992194 3.2827101
6.1760702 0.17504101 3.0224199
6.1629901 0.14044499 3.0313001
6.0130601 -0.77941698 3.18871
6.1096301 -0.091584101 3.06074
6.0462399 -0.57090098 3.13885
6.1279101 -0.334528 3.2116499
5.9558501 -1.31549 3.3184099
5.9814701 -1.18674 3.3247299
5.9390702 -1.15161 3.1867499
6.2252998 0.306739 3.1324899
5.96944 -1.02408 3.1331601
6.2038002 0.237048 3.1542399
6.1820102 0.020876501 3.16609
6.1879101 -0.00393268 3.1309199
6.08007 -0.52647299 3.05428
6.02812 -0.65986598 3.18487
6.0020599 -1.21882 3.1668701
5.9847202 -0.97407597 3.15905
6.0763102 -0.601116 3.2525599
6.0541 -0.59537601 3.06991
6.0679798 -0.49566299 3.0526299
6.0654302 -0.45219901 3.1519599
6.0676999 -0.43349499 3.0908
6.0743499 -0.379897 3.0871
6.18958 0.20819999 3.1688299
6.1538701 0.32045299 3.04547
6.0770898 -0.244122 3.0553401
6.1357198 0.20044599 3.0387399
5.9826102 -1.17905 3.3192699
6.0086899 -0.85507798 3.1760299
6.0166702 -0.75750399 3.18957
6.08885 -0.217658 3.0810001
6.0324502 -0.61843699 3.17349
6.0994601 -0.15585899 3.07408
6.18009 0.21946 3.16822
5.9667301 -1.25928 3.19572
5.9773402 -1.2008801 3.3225
5.98523 -1.07883 3.1952801
6.1729798 0.0199665 3.18348
6.15733 -0.017100001 3.19437
6.0644698 -0.50536501 3.15063
6.0233302 -0.73619998 3.0920701
6.04772 -0.539792 3.0782399
6.0509601 -0.64243901 3.07073
6.17454 -0.30260399 3.1756101
5.9078999 -1.13638 3.2009699
6.1257701 -0.20236 3.2156899
6.0548 -0.65941 3.07201
6.04284 -0.822523 3.2804899
5.9941802 -0.90856397 3.2083001
6.1261802 -0.18352599 3.21561
5.9939899 -0.86778003 3.19416
6.0042701 -0.83957797 3.10817
6.13731 0.139759 3.04409
6.0522499 -0.733652 3.27425
6.1726499 0.12869801 3.18295
6.0555201 -0.408952 3.1478
6.0932102 -0.396061 3.23891
6.0525198 -0.518197 3.0771401
6.08078 -0.53074998 3.2544601
5.9772902 -1.25895 3.17908
5.9902701 -1.19479 3.3241301
5.9949598 -0.92317402 3.1152401
6.1129899 -0.020353001 3.0633299
5.9763899 -1.04948 3.16872
5.9874902 -0.993168 3.12868
6.0479598 -0.54399699 3.1675501
6.1001101 -0.13715699 3.07287
6.0376201 -0.84493899 3.2843101
6.0172601 -0.80183601 3.18993
6.0455298 -0.78665501 3.2788501
6.0458298 -0.733868 3.0789299
6.0598998 -0.66822898 3.2690899
6.0871501 -0.22733299 3.08301
6.0900798 -0.36178699 3.0366299
6.07832 -0.57371002 3.25583
6.0732198 -0.560381 3.05667
5.9947701 -0.95954299 3.1224899
6.13449 0.119605 3.0462999
6.04004 -0.472202 3.08992
5.9774599 -1.26794 3.34027
6.0587201 -0.27874801 3.06828
5.9874501 -0.95659798 3.19836
6.0022101 -1.13629 3.3155501
6.1392102 -0.094002001 3.20648
5.9857898 -1.00221 3.214
6.0756102 -0.328982 3.09163
5.9850798 -1.22557 3.3348899
5.9843702 -1.20011 3.32792
5.9773302 -1.10524 3.19959
6.02037 -0.60564297 3.17695
6.0004601 -1.09203 3.3138299
5.97123 -1.07362 3.1805
5.9980202 -0.98818702 3.1668999
5.98699 -0.98499602 3.12023
6.0230198 -0.91014302 3.30004
5.99543 -0.91825098 3.12463
6.0259199 -0.89051002 3.2975099
5.9960299 -0.88233101 3.1940401
6.0016799 -0.88394302 3.11835
6.03297 -0.84628302 3.2913899
6.00877 -0.828668 3.1945
6.0390501 -0.80651599 3.2860999
6.01121 -0.787292 3.1921501
6.0419402 -0.77048898 3.2834899
6.0525198 -0.69971001 3.2742701
6.0314202 -0.691131 3.08183
6.0580802 -0.66936898 3.26947
6.0099001 -0.64130902 3.1679699
6.0637999 -0.62273002 3.2644401
6.0397201 -0.61703497 3.0734799
6.0257101 -0.55925697 3.17185
6.0371399 -0.53934401 3.0894699
6.0530601 -0.51003599 3.15891
6.0382199 -0.497747 3.15995
6.0123 -0.82509202 3.10111
6.0696702 -0.37795201 3.09705
6.05123 -0.34591299 3.07549
6.1058402 -0.32510099 3.2341499
6.0654602 -0.31899199 3.04772
6.1200199 -0.22074699 3.2218001
6.08991 -0.20726199 3.0773201
6.1437898 -0.0085021397 3.2139599
6.1463699 0.0251523 3.2116399
5.9657698 -1.01201 3.1545899
6.1378798 0.18752301 3.0374501
6.1760702 0.229395 3.1861
6.1466098 0.25792 3.0359099
6.1641302 0.33983999 3.0190001
6.1675801 0.32103801 2.99455
6.1570201 0.28922099 3.0467
5.9371901 -1.2295099 3.16465
6.17909 0.23684999 3.1769099
6.17453 0.201442 3.1808701
6.1700401 0.187962 3.1912799
6.1621799 0.124008 3.1981001
6.1521902 0.0488966 3.2067399
6.1332998 -0.1148 3.2101901
5.9793301 -0.97299898 3.1408899
6.1254201 -0.18183599 3.2170999
6.0180602 -0.95491803 3.30443
6.05795 -0.270017 3.06881
6.08111 -0.273857 3.0858901
6.1129699 -0.27041501 3.2279301
6.1095099 -0.29236501 3.2309301
6.01402 -0.79378599 3.1895299
5.9537101 -1.05866 3.1523199
5.9590702 -1.05233 3.1521201
5.9801698 -0.99015701 3.1689501
6.0028701 -0.90670598 3.14697
6.0147099 -0.80941498 3.1418099
6.0177898 -0.800991 3.1387999
6.0221901 -0.76850301 3.1347899
6.0474601 -0.75033897 3.27668
6.0655499 -0.59354502 3.2676699
6.0425501 -0.65887702 3.1662199
6.0601702 -0.64656198 3.2664499
6.04003 -0.628699 3.1689999
6.0455198 -0.62338799 3.1131001
6.0425501 -0.59505397 3.16696
6.0735798 -0.314356 3.0946
6.12465 -0.184275 3.2197599
6.0552502 -0.46117601 3.1280999
6.1194201 -0.209959 3.2240601
6.0355501 -0.48730901 3.16394
6.0785499 -0.28938299 3.08991
6.0950599 -0.16325501 3.07495
6.10711 -0.27079701 3.23983
6.1468801 0.24413399 3.05794
6.1930699 0.34397599 2.9579699
6.1811399 0.24777199 3.1742301
6.1731801 0.18303999 3.1806099
6.0988598 -0.36048099 3.24068
5.9626398 -1.20833 3.1838
6.1633801 0.113051 3.18855
6.0000601 -1.09796 3.32043
5.9747801 -1.09549 3.1512499
5.9860201 -0.97940499 3.1631401
5.9934902 -0.920744 3.1122601
5.9970298 -0.89470202 3.1912899
6.01473 -0.80017197 3.1914999
6.0014501 -0.71077597 3.17294
6.0104299 -0.68355799 3.1861501
6.0889101 -0.223913 3.0803399
5.9959602 -1.1535701 3.3183
6.0121498 -1.02476 3.3052299
6.0162902 -0.99826097 3.3018501
6.1504402 0.0175843 3.1989999
6.0219002 -0.952995 3.2973199
6.03163 -0.87539601 3.28947
6.0346098 -0.85733402 3.28703
6.1394501 -0.0710463 3.2078199
6.1294799 -0.143411 3.2158899
5.9758601 -1.08425 3.1577499
5.9769502 -1.02738 3.17099
5.9744301 -1.02038 3.1331899
5.9810901 -0.98078698 3.1356001
6.1630502 0.328628 3.02403
5.99651 -0.89870101 3.1201301
5.9981999 -0.86288202 3.2054601
6.01159 -0.83388698 3.1417699
6.0139799 -0.76165599 3.19082
6.0041699 -0.71646601 3.1694801
6.0225 -0.70386702 3.18295
6.0176601 -0.608419 3.16154
6.01617 -0.59081799 3.1633101
6.0436602 -0.57820702 3.16787
6.0307999 -0.536735 3.1719999
6.0560198 -0.35921201 3.0687301
6.0448899 -0.28128701 3.0820601
6.0822501 -0.25472599 3.1139801
6.1514401 0.276871 3.0303299
6.0920401 -0.138402 3.09587
6.1201801 -0.0199035 3.0734301
6.1121898 -0.0089503704 3.07687
6.1381102 0.153082 3.0622499
6.0088501 -0.98627901 3.31651
6.0717001 -0.54267299 3.26355
6.0840402 -0.45052499 3.25319
6.1002102 -0.35256001 3.23946
6.1429901 -0.0116255 3.2085299
6.1503201 0.036138501 3.2023499
6.1574798 0.084239401 3.1963201
6.1602802 0.103559 3.19398
5.9994402 -1.11683 3.3150401
6.0032001 -1.0888 3.3118701
6.0047498 -1.0410399 3.31531
6.0166898 -0.969558 3.30513
6.0240698 -0.91200501 3.2989299
6.1354198 -0.0953812 3.2098401
6.0992799 -0.36155701 3.2402301
5.9903698 -1.1884 3.3164401
5.9980102 -1.14043 3.3204899
6.0092201 -1.04454 3.3030901
6.0117102 -1.01132 3.30091
6.0156598 -0.98289198 3.2973399
6.01897 -0.96168101 3.2943399
6.02285 -0.94071001 3.2908101
6.0253201 -0.899028 3.2961199
6.0272102 -0.880597 3.29444
6.0313501 -0.85940498 3.2907
6.03373 -0.84500498 3.2885499
6.0528302 -0.68849403 3.27525
6.05793 -0.65086901 3.27068
6.0592999 -0.62770498 3.2695
6.0789399 -0.481958 3.25577
6.0826101 -0.45473799 3.2525001
6.0854602 -0.43918899 3.2499399
6.0900402 -0.40387899 3.2458601
6.1186299 -0.203492 3.2242601
6.1381898 -0.054985501 3.21085
6.1413598 0.0105358 3.2161601
6.1483998 0.053153299 3.2099199
6.1623201 0.127124 3.1935
6.1739802 0.205732 3.1872399
6.1751699 0.22663601 3.1862199
6.1398501 -0.39439499 2.9717
6.0562601 -0.61596102 3.0439999
6.0237999 -1.02493 3.07144
6.04529 -0.70695001 3.06024
6.0503502 -0.614483 3.0580599
6.0493999 -0.583067 3.0569
6.0184002 -1.15283 3.0743999
6.0356002 -1.14562 3.0617499
5.9986401 -1.04319 3.0966799
6.0535698 -0.857032 3.0558701
5.9785299 -1.29794 3.16154
6.0390701 -1.09545 3.1083
6.0201001 -1.1866699 3.11324
6.0643101 -0.49916601 3.04405
5.9621601 -1.2875 3.3283801
6.0047202 -0.70582199 3.16713
5.89609 -1.30627 3.3160601
6.0257101 -0.74705601 3.1647
6.0489502 -0.482732 3.09515
5.9963498 -0.856529 3.17433
6.06352 -0.71230501 3.14094
6.0072398 -0.65493602 3.1675701
5.9913402 -0.96312398 3.1797299
6.13521 0.207228 3.0318999
5.97188 -1.25296 3.16078
6.1047101 -0.00028726601 3.0608799
5.9682398 -1.04742 3.1668
6.0113602 -0.80818099 3.17928
6.0100398 -0.938649 3.2817199
6.1489 0.36470199 2.9865
6.0708399 -0.27525499 3.0768499
6.0169401 -0.77355099 3.1741099
6.1430998 0.28371301 3.02245
6.0681 -0.37248001 3.118
6.1581202 0.28091699 3.0265
5.9970899 -0.78406698 3.1730101
6.0553098 -0.437356 3.0906601
6.1216402 -0.032832898 3.05636
5.9746199 -1.22208 3.31918
5.9712901 -1.2460099 3.32336
5.9821601 -1.16225 3.3059599
5.9830198 -1.17234 3.3160501
6.0795102 -0.327301 3.10923
6.06145 -0.49413499 3.13923
6.0827298 -0.189005 3.06705
5.9769902 -1.07166 3.1918399
6.1093302 -0.234378 3.2135701
6.0457401 -0.69924498 3.2664001
6.1474199 0.043572702 3.1840601
6.0209398 -0.90013301 3.28087
5.9944401 -1.14518 3.30668
5.9991398 -1.08041 3.3024299
6.0524602 -0.65170097 3.2634599
6.11444 -0.197493 3.2092199
6.0183301 -0.91916603 3.28585
6.0018802 -1.11338 3.3071799
6.0903301 -0.372457 3.23119
6.1211801 -0.153192 3.2049601
6.13627 -0.040222701 3.19209
6.0025301 -1.06261 3.29687
6.1149201 -0.15900201 3.2012801
6.1476402 0.107732 3.1730299
6.1689601 0.19298901 3.16429
6.0823002 -0.42202801 3.2351201
6.12853 -0.101446 3.2016301
6.09939 -0.31450701 3.22066
6.10325 -0.359925 3.2307601
6.1645999 0.16077401 3.1695001
6.08531 -0.40814301 3.23545
6.02596 -0.88652402 3.28632
6.1616702 0.136143 3.175
6.1814098 0.26294801 3.1598699
6.1283798 -0.108538 3.20035
5.9948001 -1.1189801 3.3048501
6.0072398 -1.01127 3.2899899
6.0997901 -0.30742601 3.22173
6.1693001 0.16604 3.17465
6.1533499 0.082399197 3.17904
6.0796599 -0.414112 3.2314899
6.0334101 -0.80089301 3.2701099
5.9325399 -1.11967 3.1537099
6.06495 -0.74958599 3.03513
6.0577402 -0.87477398 3.0513101
5.9711399 -1.29786 3.1754301
6.06745 -0.75751299 3.0415599
6.0234799 -1.02043 3.0766499
6.0710001 -0.80679297 3.04088
6.0664701 -0.74085802 3.0448999
6.0977402 -0.67615402 3.0186
6.0602498 -0.499134 3.0480499
6.0443301 -0.68112302 3.1371901
5.96071 -1.04326 3.1333899
5.89851 -1.30953 3.3140199
6.0061798 -0.74647403 3.1668899
6.1613102 0.36770701 2.8929901
5.9377899 -1.31703 3.31549
6.1589899 0.37233999 2.9955201
6.0141201 -0.62065601 3.16132
6.08566 -0.248482 3.0647399
6.1532001 0.30129501 3.0104499
5.9980602 -0.93864202 3.1365399
6.07552 -0.34364301 3.0782101
6.1178899 0.0287573 3.0599899
6.0054898 -0.880521 3.1301501
5.9919701 -0.99646699 3.1766601
5.9622302 -1.19888 3.1707499
6.00035 -0.95783502 3.19274
5.99755 -0.95416403 3.13468
5.9953499 -0.93268001 3.2000999
6.0055499 -0.892735 3.1895101
6.0092902 -0.84975302 3.1842201
6.0201702 -0.80774099 3.1818099
6.0626898 -0.45271701 3.0915599
6.0426698 -0.63693303 3.0993099
6.0511298 -0.54400402 3.1517799
6.0594101 -0.39135501 3.12219
6.0088902 -0.78452301 3.16798
6.0708699 -0.337834 3.1114199
6.0553098 -0.498918 3.14606
6.0394301 -0.8211 3.2725999
6.1761398 0.268821 3.15237
6.1254101 -0.107869 3.19169
6.0893898 -0.42278701 3.22593
6.0244002 -0.92310798 3.28512
6.0535598 -0.70957899 3.26174
6.0788398 -0.46586099 3.2277999
6.18261 0.25008601 3.16272
6.06603 -0.60330999 3.2511401
6.1731 0.178635 3.1689401
5.99897 -1.1313699 3.30563
6.0983601 -0.37198001 3.22633
6.00982 -1.04557 3.2943399
6.1482501 -0.0095628304 3.18803
6.0903201 -0.430581 3.2325001
6.11518 -0.26061299 3.2123899
6.1442599 -0.032176599 3.1878901
6.0294299 -0.87507403 3.2802401
6.0239601 -0.95073599 3.28947
6.15312 -0.0107939 3.1928599
6.01858 -0.97785199 3.2895999
6.0557599 -0.71676701 3.26717
6.1414499 -0.056408402 3.19537
6.0975399 -0.37927899 3.22592
5.91326 -1.17103 3.1833601
6.0919399 -0.44475901 3.02935
5.9463401 -1.08215 3.1581099
5.9391599 -1.10067 3.1547301
6.0150599 -0.67121297 3.17084
5.9637799 -1.03126 3.1359501
6.0262799 -0.62504798 3.1633899
5.9781799 -1.31744 3.3256099
6.0521998 -0.53804302 3.1544001
5.9862499 -1.04993 3.1870301
6.0729899 -0.369782 3.0885401
6.0160899 -0.57450801 3.16541
5.9822502 -1.24131 3.3175199
5.9706402 -1.25328 3.18225
5.9861002 -1.22361 3.3153701
5.9935999 -1.1673599 3.3120301
6.01158 -0.62225401 3.1671
5.9756799 -1.0095201 3.1263101
5.99088 -0.99103498 3.1769199
6.02034 -0.75498199 3.1804399
5.9864302 -0.97959298 3.1180899
5.9946499 -0.90716898 3.1863599
5.9965601 -0.87449199 3.1773601
5.9994502 -0.82672697 3.1770699
6.0290799 -0.78095901 3.09868
5.9939198 -0.720577 3.1865799
5.9943099 -0.94061202 3.11288
6.0273499 -0.56921601 3.16501
6.0583 -0.624075 3.1545
6.0679102 -0.448953 3.0892999
6.0222301 -0.53384602 3.16201
5.9882998 -0.953035 3.1896601
6.0710301 -0.41304299 3.0882399
6.0784202 -0.319359 3.0861001
6.12047 -0.0168423 3.0534599
5.98037 -1.28511 3.3252699
6.1503901 0.246079 3.0490799
6.16465 0.310294 3.03949
5.9849701 -1.07026 3.1871901
6.0521698 -0.304079 3.0723701
6.14042 0.1286 3.0327401
5.9965401 -0.95437902 3.1194501
6.06636 -0.46326199 3.0899999
6.1412301 0.105393 3.04076
6.1393499 0.113576 3.03299
6.0409098 -0.71233302 3.0913899
6.0300102 -0.89446801 3.2875199
6.0461402 -0.76403898 3.2722399
6.0760002 -0.52258903 3.25088
6.0185099 -1.0435801 3.30671
6.0117998 -1.05538 3.3029699
6.0548701 -0.68379599 3.2688899
6.1100502 -0.245511 3.2275
6.0683799 -0.58376598 3.25418
6.0258298 -0.94071603 3.28879
6.0205998 -1.01043 3.3064799
6.1587801 0.101079 3.1953499
6.1100998 -0.20964 3.2113199
6.00772 -1.11271 3.3119299
6.1065602 -0.28760901 3.2284501
6.11941 -0.173742 3.20555
6.1301398 -0.123846 3.20819
6.1367202 -0.073494598 3.2051899
6.1872401 0.277518 3.1622601
6.0171599 -1.0103199 3.3007801
6.10007 -0.33656999 3.23141
6.0518498 -0.71057302 3.2700901
6.0009398 -1.16317 3.31494
6.13305 -0.080322303 3.1988101
6.0061898 -1.10692 3.3050799
6.0997901 -0.665025 3.23119
5.92905 -1.30715 3.3227799
5.9698601 -1.2253799 3.17559
5.97718 -1.01344 3.21538
5.9851398 -1.01653 3.1586201
6.0076098 -0.93513697 3.1433499
5.9821701 -1.09086 3.21175
6.02315 -0.778189 3.12676
6.0727801 -0.338328 3.0894001
6.1629801 0.312538 3.04352
6.16817 0.31150699 3.01545
6.0639901 -0.420912 3.09865
6.1125698 -0.090162002 3.07939
5.9944401 -0.93674397 3.20556
6.0219202 -0.094165899 3.10604
6.0811701 -0.28474101 3.0808599
6.1152201 -0.0050064102 3.06074
5.9943299 -1.19847 3.31898
6.1409402 0.16006701 3.0348001
6.1571298 0.26801601 3.0416901
6.1543698 0.230312 3.0446899
6.1448398 0.189982 3.05391
6.1469002 0.100196 3.04546
6.1191702 -0.0106934 3.07233
6.0538101 -0.418338 3.1447599
6.14856 0.217816 3.02701
6.08567 -0.23679499 3.08357
6.1469202 -0.0344062 3.20435
6.1254702 -0.044783 3.2144799
6.0865502 -0.374291 3.24421
6.0382299 -0.853266 3.2843201
6.1781502 0.19028801 3.1756799
6.0098901 -1.18187 3.30597
6.0808601 -0.47815299 3.25052
6.0802598 -0.42596301 3.25014
6.04351 -0.78084701 3.2788401
6.0093699 -1.07293 3.30463
6.0427599 -0.73471397 3.2787001
6.1321201 -0.108324 3.2173901
6.1556702 0.00339914 3.1967399
6.1123199 -0.275058 3.2288899
6.1620698 0.076836199 3.1903999
6.16891 0.096940398 3.1846199
6.1770601 0.22654399 3.16856
6.1591201 0.13597099 3.1844699
6.0065398 -1.13367 3.30793
6.01127 -1.02861 3.3023601
6.0348902 -0.94363201 3.2885201
6.1315398 -0.137915 3.2183599
6.12676 -0.144385 3.2151201
6.1212401 -0.22749799 3.2209401
6.07195 -0.0621191 3.25367
6.0970602 -0.15750299 3.18788
6.06249 -0.13084599 3.3299301
6.11971 -0.040865 3.17031
6.0697699 -0.039125498 3.2297299
6.1538301 0.217608 3.1667299
6.1593199 0.279212 3.1706901
6.0086799 -1.00565 3.2578199
6.0689201 -0.53620899 3.1456699
6.0373402 -0.42789 3.19258
6.1264 -0.0022700101 3.1529901
6.1373701 0.054017399 3.1396799
6.0694499 0.0727842 3.1842301
5.9889898 -0.80705798 3.3577299
6.08178 -0.42332801 3.1203101
6.0555 -0.14430401 3.31233
6.0560699 -0.123452 3.3168199
6.1331301 -0.0189516 3.15168
6.1350198 0.073041402 3.18309
5.9674802 -0.84183198 3.2992799
6.0113902 -0.961604 3.2786701
6.0138798 -0.922943 3.2737801
6.0778399 -0.328098 3.3459699
6.05339 -0.17041101 3.3460901
6.0574398 -0.119961 3.3243799
6.1265001 0.031958699 3.2867701
5.9780798 -1.17685 3.3405499
5.9834499 -1.14925 3.2944
5.9444199 -1.08468 3.2964001
6.0001998 -1.02442 3.3030701
5.9386401 -1.0317301 3.2172101
6.0507498 -0.19439501 3.3107901
6.1233802 0.0040745898 3.2723701
6.0912299 -0.37022799 3.1498101
6.0565 -0.142473 3.28737
5.97686 -1.20305 3.34552
5.9899702 -1.07857 3.35674
5.9436998 -1.01036 3.27209
6.0057602 -0.759556 3.25718
6.0700202 -0.377637 3.34571
6.1315398 0.098819204 3.1528201
6.13761 0.072900496 3.14644
6.0522599 -0.17767601 3.27812
5.9786201 -1.2011 3.3271999
5.9869699 -1.0941401 3.3715301
5.98844 -1.04237 3.3455601
5.95188 -1.06148 3.2703099
6.0042601 -0.99169701 3.3033299
6.0087299 -0.94880098 3.3078101
6.0121198 -0.72186202 3.22458
6.02387 -0.65390402 3.1617999
5.9828501 -1.12854 3.33794
5.94203 -1.11195 3.2953701
5.9885201 -1.0772901 3.3647399
5.9896202 -1.07253 3.3626001
6.00666 -0.96496999 3.32024
6.0105901 -0.89185601 3.3345301
6.0759501 -0.33496299 3.2612801
6.10006 -0.20716199 3.2342501
6.0626998 -0.073696598 3.2634399
6.12393 0.0143028 3.1963501
6.1294498 0.047647499 3.19649
6.13449 0.12621 3.1893401
6.1449299 0.180935 3.17275
6.15944 0.262833 3.1611199
6.1624098 0.28079399 3.16099
6.1259599 0.075048096 3.1903601
6.0673199 -0.38103101 3.3480101
6.1090102 -0.118535 3.20961
5.9735799 -1.2187099 3.3395801
5.9530201 -1.04963 3.29001
6.00316 -0.98049998 3.3268099
5.9656301 -0.91969001 3.31201
6.0142498 -0.86447603 3.3438799
5.9976702 -1.0078 3.33288
6.1060801 -0.154256 3.21699
5.9830399 -1.13265 3.34711
5.9285498 -1.13633 3.2820699
5.9918199 -1.06964 3.3213301
5.9475999 -1.0848 3.2577801
5.99716 -1.00458 3.32197
5.9546399 -0.93700302 3.3122399
6.01473 -0.90856397 3.32705
5.9679599 -0.90290898 3.3117001
6.0187602 -0.882164 3.3345201
6.0022998 -0.84263599 3.1634099
6.0685802 -0.020811999 3.25668
6.0381598 -0.62816501 3.32967
6.0462399 -0.56361997 3.3629999
6.0573101 -0.471614 3.3506701
6.0622501 -0.42663801 3.3128901
6.0780802 -0.36671099 3.2685399
6.0842099 -0.338184 3.2603099
6.0851202 -0.29175299 3.3299
6.05617 -0.28075999 3.1536601
6.09583 -0.240661 3.24351
6.1147799 -0.0721315 3.1946499
6.1251001 0.0284211 3.18644
6.1395702 0.105178 3.1786399
6.1443 0.150333 3.2142799
5.9767799 -0.904562 3.2932
6.01051 -0.93389302 3.3226299
5.9993901 -0.993056 3.3216801
5.9864898 -1.13271 3.3224399
5.9882498 -1.0842201 3.3271
6.16289 0.275821 3.16014
6.1525998 0.22119901 3.16661
5.9851499 -1.11299 3.3391099
5.9542098 -1.08933 3.25617
5.9379001 -1.12798 3.2671399
5.9441199 -1.10559 3.2543001
6.0921102 -0.236054 3.23893
5.9980302 -1.04196 3.3104401
5.9608202 -1.05165 3.26494
6.0067101 -1.0043499 3.3060999
6.1188302 -0.039178502 3.2027299
5.9671502 -0.90846699 3.2790501
6.0136299 -0.85128701 3.3366301
6.1384501 0.107486 3.2114
6.01513 -0.79667997 3.35748
6.02072 -0.71617502 3.3880799
6.0294199 -0.64420903 3.3820701
6.0652399 -0.41450199 3.2955599
6.0834999 -0.31040901 3.2532899
6.0474901 -0.177554 3.13905
6.0963998 -0.142205 3.2223301
6.0317998 -0.62263501 3.39781
6.0697298 -0.394124 3.2925799
6.0083199 -0.92297798 3.31743
6.0046 -0.93985403 3.3185301
5.9595098 -0.96437299 3.3061399
6.0013099 -0.99742901 3.3056099
6.1538901 0.254347 3.16979
6.1487198 0.18336 3.1707699
6.0380201 -0.58328098 3.4121799
6.1027799 -0.151335 3.2221401
6.0934901 -0.228614 3.2399399
6.07582 -0.346075 3.25758
6.0514798 -0.29110599 3.13027
5.9960299 -1.01747 3.3097899
5.96596 -0.92094398 3.25488
5.9711299 -0.91506702 3.1882401
5.99963 -0.96060598 3.3059001
6.0090199 -0.90130103 3.3084199
6.0866699 0.016619099 3.00911
5.9756699 -0.89347899 3.24014
5.9811502 -0.88183898 3.2253699
6.0657101 -0.423895 3.2797699
6.1096001 -0.108756 3.2171199
6.1293702 0.056643002 3.1972001
6.1059098 -0.123355 3.2169099
6.0237198 -0.76281101 3.32688
6.0366502 -0.64183402 3.32336
6.0489802 -0.62164599 3.28127
6.0295 -0.73687398 3.29496
6.0538402 -0.51965201 3.28739
6.0611 -0.469785 3.2786701
6.0707798 -0.38529199 3.2632301
6.0834098 -0.31887901 3.2426801
6.0601001 -0.27877 3.13587
6.0137701 -0.85528499 3.3155501
6.1009998 -0.168612 3.22717
6.11271 -0.037943099 3.2066901
6.1206899 -0.007431 3.2041199
6.1294198 0.023992701 3.1969199
6.1321402 0.098385997 3.19155
6.1516299 0.235844 3.1691401
6.0907602 -0.29188499 3.2402201
5.9966502 -0.98957402 3.3133299
6.0188899 -0.831397 3.32357
6.03368 -0.68617201 3.31072
6.0111299 -0.709741 3.1774399
6.01193 -0.90572602 3.3110199
5.97367 -0.93335497 3.1574399
6.02703 -0.746508 3.30281
6.1567998 0.28149301 3.1603
6.0394602 -0.64697599 3.27792
6.0605402 -0.494389 3.28092
6.0753198 -0.351973 3.25102
6.0860801 -0.23812 3.23279
6.13938 0.15363701 3.17734
6.01859 -0.78987402 3.3168001
6.10005 -0.162111 3.22154
6.0367498 -0.72604901 3.2816501
6.0092201 -0.707766 3.2360499
6.0970201 -0.226367 3.2306099
6.0070601 -0.91746998 3.31811
6.15873 0.28954801 3.1612201
6.1177402 -0.044853799 3.2016101
5.9946599 -0.73210597 3.27068
6.0572 -0.48366699 3.2899699
6.0487199 -0.190154 2.9998901
6.0831099 -0.30817401 3.24595
6.12326 0.092561901 3.1912899
6.0020099 -0.913948 3.3294001
6.0076299 -0.90429699 3.3213699
5.961 -0.92533398 3.2276599
6.0103502 -0.86016297 3.3276801
6.0117002 -0.85501403 3.32986
5.98559 -0.83114702 3.2084601
6.0493398 -0.62550402 3.2804
6.0612402 -0.45874399 3.31387
6.0619502 -0.43171799 3.2876501
6.0718098 -0.37467501 3.26372
6.14991 0.194939 3.1682799
6.12849 0.059842501 3.1924901
5.9724302 -0.91659498 3.12761
5.9836102 -0.86939901 3.18467
6.0139298 -0.80868 3.3408899
6.0201898 -0.77698702 3.3375101
5.9961901 -0.76962298 3.2302001
6.0240598 -0.75078601 3.30849
6.15482 0.287653 3.1612401
6.0377102 -0.64549899 3.30197
6.1101699 -0.087223202 3.20805
6.0644202 -0.408802 3.27935
6.0762701 -0.344677 3.2558899
5.9700098 -1.23008 3.35023
6.0291901 -0.69855899 3.34975
6.03649 -0.66619098 3.3239999
6.0422101 -0.61785901 3.3387799
6.0531101 -0.52433199 3.29232
5.9837699 -1.13678 3.35356
6.0538001 -0.490877 3.3373599
5.9928899 -1.05213 3.3248
6.02004 -0.75285101 3.43012
5.9411502 -1.11659 3.26298
5.9846301 -1.09706 3.3391299
5.9936199 -1.00766 3.3157301
5.9742298 -0.89478302 3.24472
5.9578199 -0.97944498 3.29951
6.0567598 -0.43765 3.38919
5.9502401 -1.0511301 3.2660501
6.0036802 -0.98539001 3.3174901
5.96349 -0.95081699 3.2794001
6.08777 -0.26124901 3.25072
6.1044402 -0.112658 3.21542
6.1289301 0.043776501 3.1940899
6.10571 -0.104642 3.2140601
6.1069498 -0.145969 3.2244301
6.01056 -0.88396603 3.3306501
6.1497598 0.230239 3.1644599
6.01794 -0.81463498 3.3599501
6.0152702 -0.84382999 3.34323
6.1317101 0.0086179702 3.19995
6.0043702 -0.92606801 3.3297801
6.1198301 -0.0148685 3.20117
6.09168 -0.191393 3.2311399
6.1020098 -0.177287 3.22855
6.1333899 0.069910601 3.1863401
6.1425099 0.130117 3.1816199
6.1235199 -0.048625201 3.19822
6.0653801 -0.39073199 3.28947
6.0781102 -0.356556 3.2887001
6.1148601 -0.098052599 3.2142601
6.0854802 -0.27620301 3.25192
5.9686799 -0.91987199 3.2878499
5.9819002 -0.87898201 3.2462599
6.0005999 -0.727929 3.2442
6.0610299 -0.43627301 3.27424
6.0227799 -0.55144799 3.22172
6.0307899 -0.53694898 3.1685901
6.03543 -0.48161 3.1737399
6.0783801 -0.34287301 3.2488599
6.1318998 0.13358399 3.1853099
6.14258 0.16393401 3.17962
6.0539498 -0.277125 3.13744
6.00243 -0.95140302 3.31739
6.04778 -0.578264 3.28175
6.0095801 -0.61386102 3.24382
5.9993 -0.75901502 3.2269399
6.0263 -0.72347897 3.3331001
6.0991101 -0.153622 3.2193401
6.0367298 -0.65781301 3.2862699
6.0136399 -0.58738202 3.23768
6.06669 -0.41948101 3.27617
6.09551 -0.222289 3.2302101
6.0805998 -0.31778601 3.2468801
6.1340299 0.116803 3.1867499
5.97575 -0.888861 3.2565
6.1085801 -0.084659703 3.21469
6.0139298 -0.80704099 3.32815
6.0281501 -0.721178 3.3029001
6.0039101 -0.93370801 3.31585
6.00986 -0.851004 3.32497
6.10639 -0.112797 3.2148199
6.0934801 -0.20801701 3.2287199
5.9868598 -1.06724 3.3298399
5.9932399 -1.04605 3.3200099
5.9858899 -1.03263 3.3243699
5.95363 -1.03948 3.2860899
5.9948401 -0.99872798 3.3224599
5.9928799 -0.98780203 3.32459
6.0027099 -0.98484999 3.3157799
6.0026398 -0.91076398 3.3193901
5.9691701 -0.91282499 3.28526
5.9608202 -0.93951303 3.2038801
5.9761901 -0.90510601 3.2703199
5.97932 -0.92413199 3.0718701
6.01337 -0.82259601 3.32355
5.9895501 -0.79956502 3.2337601
6.0204201 -0.756235 3.32883
6.0098 -0.69322401 3.2125299
6.0360599 -0.64496303 3.2928901
6.0340199 -0.50397301 3.14398
6.11023 -0.0690118 3.2102699
6.0749502 -0.342347 3.2487199
6.0784001 -0.297681 3.2449701
6.0640898 -0.269337 3.08459
6.0866799 -0.205413 3.2302301
6.0687799 -0.16042501 2.99175
6.1063099 -0.038557898 3.2106099
6.1231699 0.025405901 3.19959
6.1255798 0.072130203 3.1919701
6.14816 0.239344 3.1672499
6.12149 0.36268499 3.0034201
5.9540701 -1.05547 3.28233
5.9623599 -1.11981 3.0954399
5.9604502 -0.94192702 3.3189499
6.00635 -0.88726097 3.31918
5.98067 -0.89948702 3.0778401
5.99193 -0.78295499 3.1959701
6.0275302 -0.70509702 3.30831
6.03055 -0.66903502 3.30284
5.9973202 -0.643695 3.2676001
6.0177999 -0.63702703 3.2140999
6.1508002 0.24687 3.16698
6.0441298 -0.142185 3.0503399
5.97335 -0.92288101 3.0701101
6.0545502 -0.46532801 3.2883401
6.0240598 -0.55698502 3.20068
6.03543 -0.45045701 3.16782
6.0553999 -0.49511099 3.2927301
6.0483098 -0.55832303 3.3657
5.9698901 -0.91063899 3.2978301
6.0113201 -0.91410798 3.319
6.0163598 -0.87065297 3.32763
6.09233 -0.254621 3.2382901
6.1156502 -0.0573848 3.21066
6.0998302 -0.18613 3.2309501
6.1151199 -0.079713099 3.2145
5.9920201 -1.0508699 3.3276899
5.9946599 -1.0055 3.32496
5.95926 -0.991 3.2866299
6.00563 -0.929519 3.3158901
5.96977 -0.91269702 3.2761099
6.0946999 -0.15409 3.2201099
6.0201101 -0.78312099 3.3057001
6.0054402 -0.70960897 3.2288401
6.15519 -0.65177202 3.2242999
6.0441198 -0.60413498 3.26776
6.0220499 -0.593961 3.1745601
6.0265002 -0.55346602 3.1608901
6.0468798 -0.58193499 3.26528
6.0755301 -0.357934 3.25389
6.0540299 -0.31155899 3.15729
6.0791702 -0.313678 3.25068
6.0890002 -0.256713 3.23806
6.0587101 -0.465094 3.2677701
6.0982299 -0.162541 3.2233601
6.1076598 -0.137317 3.2225599
6.1161098 -0.0218306 3.2054999
6.1361299 0.15218499 3.1852901
6.12782 0.067533799 3.1921999
6.0342798 -0.70937502 3.2938099
6.0002599 -0.73457599 3.2369299
6.0566902 -0.50765502 3.26246
6.1203399 0.029678199 3.2023399
6.1422501 0.209397 3.17418
5.9628 -1.00143 3.1447201
6.1543198 0.221669 3.1744399
6.0096998 -0.85901302 3.3194599
6.0168099 -0.817101 3.3120699
6.02596 -0.571917 3.16308
6.0288801 -0.724953 3.2906101
6.14221 0.25189 3.16856
6.09201 -0.19586 3.2295101
5.9930301 -1.03997 3.32112
6.13236 0.121176 3.1882999
6.1079898 -0.058425501 3.22036
5.99685 -0.98767 3.32321
6.08356 -0.28850201 3.2408299
6.0087299 -0.90345699 3.32161
6.0063 -0.66697502 3.24089
6.01194 -0.71669 3.19379
6.0132499 -0.57609499 3.2158599
6.0332198 -0.422088 3.1930599
6.02633 -0.56071401 3.1794
6.0062399 -0.653162 3.2378399
5.9619398 -1.13199 3.07535
6.0147099 -0.64189899 3.21841
5.9526 -1.10762 3.2680399
5.9848399 -1.0505199 3.3304901
5.99194 -1.0348901 3.32813
5.9607401 -1.00033 3.2843499
5.9972 -0.96431899 3.3282599
5.9707298 -0.89673698 3.2862301
6.0068698 -0.88488603 3.3231399
6.0190201 -0.56955302 3.2316999
6.0149698 -0.83819997 3.31757
6.0169201 -0.81820399 3.3171699
6.0892901 -0.22839899 3.2314601
5.9759598 -0.86189699 3.27106
6.0338998 -0.70357198 3.28232
6.0046902 -0.933586 3.3248401
6.0465498 -0.578601 3.26899
6.0873599 -0.19403601 3.2332499
6.0557299 -0.52279699 3.26372
6.10078 -0.141885 3.22209
6.0603499 -0.457461 3.26388
6.05093 -0.30151701 3.1347699
6.0796099 -0.30565801 3.2448201
6.0834599 -0.27417901 3.24879
6.0780802 -0.272342 3.24437
6.0935702 -0.25040501 3.2406399
6.1128998 -0.088943496 3.21943
6.1241102 0.057982299 3.19751
6.1375299 0.156719 3.1846001
6.1517 0.283562 3.1728001
6.1334901 0.085159898 3.19804
6.0197101 -0.79279703 3.29914
6.1560402 0.27385601 3.1735101
5.9872398 -1.0524499 3.3381801
5.9930902 -1.04291 3.33218
6.0709801 -0.36108199 3.2551501
5.9953799 -0.99758202 3.32847
6.1202402 0.0279941 3.20327
6.1447001 0.26220301 3.17049
6.1082201 -0.059711199 3.2239699
6.0363102 -0.53824002 3.1427901
5.94277 -1.2338901 3.0876701
5.98283 -1.10261 3.33918
5.9559798 -1.0395499 3.26525
5.9917598 -1.0102201 3.3327
5.9779801 -0.89130402 3.2721701
6.13205 -0.78660202 3.2104599
6.0124898 -0.62643403 3.2356999
6.0453901 -0.58735102 3.2864499
6.0580201 -0.47070199 3.2722399
6.0085201 -0.49212101 3.32635
6.0604801 -0.39345801 3.2656
6.0673499 -0.35864899 3.25828
6.09375 -0.21255501 3.24038
6.0977001 -0.20059 3.24067
6.0929399 -0.17866699 3.2333801
6.1164298 0.0688316 3.2065899
6.1209102 0.082278997 3.2056201
6.1373401 0.108442 3.19946
6.15382 0.26221099 3.1758001
6.11025 -0.0679098 3.2276299
6.1037798 -0.12772 3.2295401
6.0008702 -0.95069897 3.3195701
6.0082402 -0.83911502 3.31529
6.0167699 -0.83121002 3.31568
5.9910998 -0.803904 3.22329
6.0205798 -0.77731401 3.3086801
6.0540099 -0.51636398 3.2757699
6.0444198 -0.61035103 3.2825501
6.0517602 -0.40185201 3.1241801
6.02706 -0.569763 3.1679699
5.9874001 -1.05093 3.3338499
5.9907598 -1.0432301 3.33231
6.10217 -0.072259597 3.22645
6.0760002 -0.0843459 2.9738801
6.05125 -0.53810197 3.2820201
5.9987898 -0.96761602 3.32458
6.0974898 -0.146238 3.2304299
6.0070701 -0.93194503 3.3217599
6.0136199 -0.82604003 3.3128901
6.0362201 -0.66221303 3.29126
5.9945598 -0.77603102 3.21173
6.0437498 -0.275711 3.10864
6.0527 -0.27068001 3.1103001
6.0209498 -0.64972103 3.16588
6.0346699 -0.452241 3.1839199
5.9800601 -0.87426502 3.19666
5.9738002 -0.89176899 3.2344301
5.9846001 -0.85887802 3.23193
5.9766598 -0.849253 3.28843
6.0220399 -0.81458902 3.3039999
6.04632 -0.63363898 3.27795
6.1108198 -0.043633901 3.2256999
6.0516701 -0.531362 3.27598
6.0259099 -0.75138801 3.29162
6.1357098 0.224406 3.18644
6.0952201 -0.17044701 3.23645
6.1197701 0.0141664 3.22525
6.0189199 -0.82385403 3.30458
6.0745401 -0.346733 3.2678499
6.0999599 -0.129113 3.2353401
6.07093 -0.427858 3.26846
6.01298 -0.854312 3.3150499
6.1419702 0.27476501 3.1809199
6.0339198 -0.66804999 3.2862
6.1147199 -0.0063471799 3.21875
6.0369101 -0.65724701 3.28828
6.14855 0.27128199 3.18782
6.0050101 -0.89564699 3.3180101
6.1021299 -0.100126 3.22577
6.0842199 -0.250707 3.2510099
6.1202698 0.038543001 3.21472
6.0205402 -0.78589302 3.29515
6.0655398 -0.40193799 3.2643001
6.0654898 -0.357797 3.25946
6.07968 -0.28969601 3.2525101
6.0872898 -0.23800699 3.25559
6.0569301 -0.49062201 3.27845
6.0179901 -0.80918598 3.3017399
6.01474 -0.59745401 3.2377
6.01156 -0.617432 3.2516999
5.9717202 -1.20479 3.3377299
5.9749398 -1.1866699 3.33078
5.97296 -1.17713 3.3303599
5.9807801 -1.16992 3.33041
5.9808202 -1.1362799 3.3322401
6.0687699 -0.32805601 3.2632101
5.98557 -1.07831 3.32776
5.9839902 -1.06998 3.3243201
5.95575 -1.05711 3.2842801
6.0950899 -0.15514 3.23668
5.98984 -1.05193 3.3250201
5.9917798 -1.06171 3.32583
6.0581899 -0.47593999 3.2707
6.0097098 -0.94061202 3.3088901
6.0425 -0.57748598 3.3037
6.0319099 -0.68598402 3.3011999
5.9631701 -0.90581101 3.3143001
6.0155201 -0.81818497 3.31036
6.1278801 0.0499079 3.2151
6.1391201 0.19411799 3.1996801
6.1184702 0.349549 3.0032799
6.0293999 -0.71282899 3.3
5.9791198 -0.80753899 3.2611599
6.0817599 -0.780963 3.4078701
6.0242901 -0.78087598 3.30179
6.0630498 -0.423861 3.2669799
6.0335698 -0.69667703 3.3041201
6.04809 -0.51216501 3.2917299
5.9620199 -0.92481399 3.3166299
6.1493201 -0.71726102 3.1962199
5.9601798 -0.95108199 3.31251
5.9952002 -1.0062799 3.32145
6.0125198 -0.82812798 3.3094299
6.0601702 -0.435249 3.2637401
6.0664401 -0.38220501 3.2834101
6.0131302 -0.844028 3.3090799
6.0692601 -0.35888299 3.2751701
5.9736099 -0.91537899 3.1131201
6.0855999 -0.27645299 3.2593
6.0901098 -0.187389 3.24542
6.1065001 -0.11854 3.2356999
6.1135802 0.0044058599 3.21841
6.1493802 0.228182 3.1989501
6.0534601 -0.328953 3.1712101
6.11728 0.0170311 3.2191701
5.9793 -1.12849 3.32845
6.1241498 0.058630299 3.21229
6.0192099 -0.82438302 3.31042
6.0428901 -0.5614 3.2985401
6.1357899 0.159144 3.1984799
5.97574 -1.16816 3.3311501
6.0223398 -0.77002001 3.3006201
6.0102201 -0.86838597 3.31128
5.9658599 -0.93373901 3.1211901
6.0970302 -0.128969 3.2339699
6.0362201 -0.63081098 3.30797
6.00423 -0.938407 3.31078
5.9661598 -1.25341 3.33674
5.9521499 -1.06792 3.28546
5.9533901 -1.04248 3.2878101
6.0315599 -0.51715499 3.1916299
6.0285401 -0.50779098 3.21857
6.01861 -0.61072898 3.21629
6.0563102 -0.45784801 3.26509
5.96314 -0.99054098 3.28667
5.9631701 -0.93204999 3.1705599
6.0232601 -0.55441803 3.2112501
5.9769001 -0.83805501 3.29493
6.0591698 -0.41134101 3.2840199
6.0367398 -0.62291902 3.29898
5.9801302 -1.14802 3.32693
6.05968 -0.43474701 3.2788301
5.98176 -1.1252199 3.3266001
5.99511 -1.0304101 3.3226399
6.0603299 -0.45204601 3.28052
5.9882302 -1.05207 3.3243699
6.0201998 -0.75711602 3.3023901
6.0310502 -0.68033201 3.30176
5.9830198 -1.12067 3.3268499
6.0541701 -0.49639201 3.2788
5.9935398 -1.0023201 3.3198299
6.1171398 0.0217409 3.2169001
6.0680399 -0.36703601 3.27263
6.0060401 -0.89557099 3.30935
6.01682 -0.82246703 3.3070099
6.1673102 -0.63286901 3.21909
6.04005 -0.59093499 3.29916
6.0589499 -0.39403 3.2800801
6.18437 -0.58464098 3.17189
6.0436301 -0.59695798 3.3008101
6.0025802 -0.92400002 3.3116801
5.9756498 -0.84323198 3.29404
5.9699798 -0.87454998 3.3033299
5.9987602 -0.97161698 3.3143699
6.0432801 -0.37413701 3.17273
6.1071801 -0.0969752 3.23457
6.1348 0.106751 3.20961
5.9942698 -1.01623 3.3215799
6.1279802 0.36087599 2.9801099
6.0479798 -0.170671 2.9818399
6.1421399 0.248578 3.1946499
6.0974498 -0.132861 3.2343199
6.09442 -0.16426601 3.2379701
5.9889898 -1.06576 3.3259599
5.9732699 -1.16812 3.3297601
6.1153698 0.062444001 3.2158699
5.9865799 -1.14571 3.3252201
6.0125799 -0.892111 3.3090301
6.0409799 -0.56956702 3.2966199
6.0504098 -0.53895801 3.2932301
5.9851499 -1.07947 3.3253701
5.9630499 -0.93049002 3.3108699
5.9769402 -1.1739 3.3291199
6.1117601 -0.017981499 3.2229099
6.0809698 -0.286387 3.2602999
6.0274601 -0.69641101 3.29792
6.08007 -0.27361101 3.25225
6.1008401 -0.120852 3.23369
5.9475598 -1.0309401 3.23299
5.97681 -0.84932798 3.2019801
5.95683 -0.93200898 3.2300401
6.0037098 -0.682096 3.22403
6.0346398 -0.44014001 3.1782401
6.0064502 -0.66964698 3.23348
5.9951801 -0.84223402 3.1905799
6.0197201 -0.57258201 3.2178299
6.03932 -0.52945501 3.12713
6.0296001 -0.54388201 3.1870201
5.9786401 -0.832026 3.2763801
5.9693098 -0.945149 3.1304801
6.0601902 -0.45242599 3.27525
6.0569501 -0.482034 3.26913
6.0646601 -0.40511301 3.2742701
6.0170398 -0.80898499 3.3064499
6.08883 -0.239537 3.24858
6.0507002 -0.53560197 3.2962501
6.0033398 -1.0051301 3.3235199
6.0441499 -0.57499897 3.28689
6.0315599 -0.71828902 3.2935901
5.99963 -0.98521101 3.3248
6.1473899 0.26712799 3.18767
6.0088201 -0.91104198 3.31761
6.0265799 -0.75647902 3.3029101
6.0731502 -0.332901 3.2625
6.0142999 -0.89889699 3.31584
6.0338702 -0.682127 3.29059
6.0673699 -0.393143 3.2834201
6.0371599 -0.655132 3.2943599
6.0022502 -0.94323701 3.31516
6.03896 -0.666448 3.29493
6.02636 -0.78684998 3.3046801
6.0020299 -0.95628899 3.3176999
6.1085501 -0.054959599 3.2216201
6.0232201 -0.766469 3.30056
6.1367002 0.127939 3.2070301
6.1062198 -0.098754197 3.2320499
6.1290398 0.106452 3.20874
6.1171098 -0.0506544 3.22435
6.13308 0.138111 3.20206
6.0127001 -0.84564602 3.3130701
6.12572 0.075934097 3.2117701
6.08143 -0.27714401 3.25281
6.0395298 -0.63447601 3.29129
6.09167 -0.21340699 3.24593
6.00737 -0.90204102 3.3147199
6.1075101 -0.076943099 3.22609
6.0491199 -0.558456 3.29317
6.0752602 -0.32714599 3.2625599
5.9611201 -0.977732 3.17501
5.9638801 -0.92652297 3.3076601
6.0343599 -0.63033003 3.29354
6.0521998 -0.470258 3.28315
6.0575099 -0.43677101 3.2790301
6.0295401 -0.694601 3.2976699
5.9769301 -1.18084 3.3308101
5.9664302 -0.97953302 3.1368101
6.0066099 -0.90838301 3.3136201
5.9758401 -1.13959 3.33058
5.9846401 -1.0966901 3.3273201
5.9519401 -1.06768 3.2945099
5.9778299 -0.88385099 3.2848599
5.9850402 -1.03339 3.32725
5.9660802 -1.06789 3.1086099
5.9979801 -0.96664399 3.3178301
5.9776201 -0.85219401 3.2836001
5.9663801 -0.90685499 3.3022299
5.9692702 -0.88774198 3.2948101
6.0116901 -0.84296203 3.3121901
5.9784002 -0.904006 3.1106901
6.0023499 -0.74434698 3.24997
5.9639802 -0.93391597 3.3008201
6.0088501 -0.86921102 3.3125401
6.02035 -0.78223598 3.3089199
6.0250702 -0.72597802 3.2994201
5.9931202 -0.76894701 3.2592499
5.9959002 -0.74708802 3.2534499
5.9791098 -0.88388401 3.1086099
6.0150599 -0.81742299 3.30954
5.9976702 -0.72343701 3.25281
5.9990602 -0.71269798 3.2581601
6.0019002 -0.677957 3.26437
6.0321498 -0.67249697 3.29368
6.02706 -0.67086798 3.2968299
5.99932 -0.65349603 3.26301
6.0047302 -0.63543898 3.2607701
5.9630799 -0.95753402 3.2974999
6.0374298 -0.60241699 3.2929101
6.0190001 -0.60211402 3.2404799
6.0095401 -0.80214202 3.31194
5.98107 -0.86621898 3.0991499
6.01863 -0.572743 3.23458
6.0330801 -0.66769999 3.2948899
6.0454898 -0.55065602 3.2970901
6.0046301 -0.89906698 3.3140299
6.0557599 -0.41136101 3.27514
5.99716 -1.01237 3.3213899
6.0641999 -0.387907 3.2667799
6.0697398 -0.353246 3.26228
6.0844202 -0.256473 3.2474301
6.0402799 -0.58810401 3.29634
6.09197 -0.231325 3.24382
6.0131202 -0.58560801 3.2426801
6.09408 -0.155055 3.2351799
6.10004 -0.117332 3.2303801
5.9917202 -1.01552 3.32217
6.1097102 -0.046429899 3.22458
5.9930501 -1.04097 3.3229301
5.9998999 -0.76686603 3.2539501
6.1191502 0.0394262 3.2127099
6.1366301 0.2164 3.1958899
6.14327 0.22066601 3.1952
6.1384702 0.203447 3.1969099
6.1221299 0.0502683 3.2120399
6.11378 0.040347401 3.2144799
6.1143599 0.00502556 3.21754
6.1029801 -0.089713797 3.2268801
6.0970302 -0.144729 3.23418
5.9299102 -1.17597 3.3492
6.0911498 -0.182079 3.2388699
6.0844898 -0.24020199 3.24441
5.9801202 -1.15843 3.3276899
6.0696602 -0.38408199 3.2682099
6.0226202 -0.77338302 3.30935
6.04041 -0.57424402 3.2927599
6.0100298 -0.86495799 3.31248
5.98527 -1.08066 3.32605
6.0162101 -0.78169399 3.3083601
6.06072 -0.41247901 3.27338
6.03584 -0.46648499 3.2012701
5.9668398 -1.1392601 3.1112599
5.9612002 -0.97607398 3.29688
5.9648199 -0.94239098 3.3031399
5.9633598 -0.91144902 3.31078
5.9967699 -0.77345699 3.2574899
