# .PCD v0.7 - Point Cloud Data file format
VERSION 0.7
FIELDS x y z
SIZE 4 4 4
TYPE F F F
COUNT 1 1 1
WIDTH 639
HEIGHT 1
VIEWPOINT 0 0 0 1 0 0 0
POINTS 639
DATA ascii
3.95348 -0.93058598 3.2811
3.1999199 -0.98786098 3.28478
3.29529 -0.99532598 3.29123
3.4361899 -1.01499 3.28737
3.8255 -1.07213 3.2867601
3.9398501 -1.07566 3.2885399
3.9965 -0.93336803 3.2784801
3.5637701 -1.0292 3.2929299
3.22437 -0.72161502 3.2641499
3.6731601 -1.06054 3.28473
3.6200299 -1.05352 3.2834301
2.92594 -0.94492 3.28983
3.5411401 -1.036 3.2845399
3.8206301 -0.92911398 3.2699201
3.3208101 -1.00904 3.2855401
3.81162 -1.06215 3.2885799
3.9564199 -0.94572401 3.2790599
3.0506799 -0.95364302 3.2837801
3.1772001 -0.960006 3.29865
3.1884401 -0.97398001 3.2878499
4.2357702 -1.14264 3.27741
3.8144 -1.07472 3.26336
3.4830799 -1.0256701 3.27193
3.5659001 -1.0395401 3.2681601
3.33114 -0.740161 3.26072
3.27052 -1.00729 3.2646799
4.2929101 -1.15086 3.2510099
3.95434 -0.92858702 3.26121
3.0287099 -0.96470201 3.27617
3.6668 -1.05252 3.26706
3.02109 -0.961689 3.2729499
4.2790999 -1.13606 3.2535
3.92099 -0.93057799 3.26477
3.03108 -0.96004802 3.2732201
3.01793 -0.935188 3.2967401
3.9209099 -0.94063997 3.24055
4.0258698 -0.95021999 3.2400801
4.0759001 -1.06908 3.2666099
3.21771 -1.0022399 3.27513
3.3357799 -0.96669197 3.24278
3.40099 -0.99080902 3.2830601
4.11655 -0.98808098 3.21433
3.5301099 -1.02025 3.2718301
3.53722 -1.03158 3.2597401
3.99122 -1.08337 3.2645099
2.96435 -0.95157498 3.27316
4.0325599 -1.07225 3.27894
3.91014 -0.93958098 3.2498701
4.0429001 -1.05278 3.29459
3.0367401 -0.952443 3.27581
2.9807301 -0.947043 3.2676499
3.4974699 -1.04486 3.2423999
3.57516 -1.01931 3.27771
3.8114901 -1.05642 3.2672
3.85548 -0.91722602 3.2636299
3.9754801 -0.93591899 3.26439
4.1779499 -1.10044 3.26578
3.02739 -0.94732702 3.2799201
3.0311401 -0.955015 3.27549
3.0314801 -0.941535 3.28526
4.0032902 -0.95569199 3.24038
2.95418 -0.94842702 3.2648499
3.9400401 -0.94017297 3.2497799
4.0822802 -0.96452099 3.24156
3.0264699 -0.94344401 3.2660799
2.9727299 -0.94258898 3.2781
3.83149 -0.93916798 3.2648399
3.0311899 -0.95115697 3.26895
3.9939101 -1.0598 3.2871699
4.14921 -1.08445 3.28105
3.2748599 -0.981969 3.2662201
3.6958301 -1.06144 3.2511799
3.8159599 -0.92240697 3.2692101
3.5632401 -1.0345 3.2618899
3.6090801 -1.04997 3.2565401
3.6296799 -1.0711 3.2404699
3.2831099 -0.99945903 3.2607
4.0515299 -1.0639 3.29211
4.1413298 -1.08367 3.2846701
4.1901302 -1.0993201 3.2763801
3.6272199 -0.98488098 3.3148201
3.6326499 -1.06274 3.24821
3.3115699 -0.97422898 3.26828
3.37148 -1.00023 3.2702799
3.7167201 -1.04414 3.2694199
3.79638 -1.05913 3.26598
3.8423901 -1.06529 3.2662101
4.0633998 -1.06477 3.2867401
3.23469 -0.99901497 3.2581
3.3125601 -0.97240102 3.2653201
3.4151299 -1.01824 3.26088
3.9089601 -1.09043 3.2558
4.01577 -1.11024 3.24701
3.83535 -0.93690199 3.2634799
4.1369901 -1.08183 3.28351
4.1787601 -1.09611 3.2764499
3.8324399 -0.91553003 3.25877
3.32131 -0.99378002 3.2721601
3.2606399 -1.01788 3.2473099
3.38392 -0.98905897 3.2648201
3.43382 -0.987418 3.2746201
3.4651599 -1.03993 3.2537701
3.35444 -0.99989301 3.2700701
3.7985001 -1.04901 3.27279
4.0808401 -1.0756 3.2806301
3.8218701 -0.91787899 3.26566
3.4298301 -0.98844701 3.27279
3.4356799 -0.96945101 3.2669401
3.5376 -1.04476 3.25279
3.82603 -0.91475803 3.2655699
4.0847001 -1.0661401 3.2879801
4.1069999 -1.07471 3.28532
3.8573401 -1.04127 3.2632401
3.8283801 -0.94051498 3.2658999
3.7786 -0.90838301 3.26352
3.57517 -1.04375 3.2572701
3.8780601 -0.80941898 3.25526
3.89133 -0.77289599 3.2549901
4.14889 -1.08734 3.2807
3.57236 -0.99944299 3.2769001
3.5286701 -0.95805103 3.2608199
3.6168599 -0.98415798 3.2815101
3.8115499 -1.04214 3.26847
3.9983101 -1.08706 3.26249
4.00491 -1.08571 3.2651
4.1179299 -1.08766 3.2739799
4.0862398 -1.04195 3.2774899
3.90066 -0.78609103 3.25297
3.7896399 -1.01555 3.2764599
3.87286 -1.0474401 3.2569001
3.93262 -1.07768 3.26336
4.0720501 -1.06945 3.28741
4.0627699 -1.05195 3.2593501
4.1911001 -1.09892 3.2762499
3.96316 -0.83932602 3.2590401
3.90431 -0.78157902 3.26296
3.8921599 -0.77531898 3.25565
3.8262401 -0.92379302 3.26472
4.01823 -1.0490299 3.2794399
3.6986101 -0.910155 3.2498801
3.8913701 -0.78237802 3.2567501
3.9814501 -1.0541199 3.27229
4.0215201 -1.04831 3.27896
3.8735099 -0.81381899 3.2546999
3.87235 -0.81333703 3.2513599
3.8754699 -1.03562 3.2722499
3.0989799 -0.94664401 3.29158
3.3041699 -0.97977298 3.2848001
3.5855999 -1.02317 3.27739
4.1003299 -1.06336 3.2881999
4.1213198 -1.08348 3.2838099
4.2808499 -1.12923 3.2601199
3.8873501 -1.05321 3.26737
3.9557199 -1.06041 3.2693601
3.9656501 -1.0485899 3.2780001
3.8352499 -0.92857897 3.2567201
3.7904799 -0.880705 3.2499499
4.0346899 -1.04163 3.26512
4.0111599 -0.93629199 3.26385
4.19135 -1.06736 3.2725
3.9008 -0.78354001 3.2462299
3.8984101 -0.77822697 3.24825
3.91453 -1.04887 3.2725999
3.79211 -0.88114703 3.2507
3.92364 -1.04087 3.2677901
3.9573801 -1.05994 3.26559
3.9957199 -1.0497 3.2635601
4.0288301 -1.04342 3.2630999
3.98087 -1.08368 3.26512
4.1998301 -1.0703 3.2650599
4.0285602 -0.85702902 3.2467301
4.0279102 -0.85248202 3.2509501
3.95838 -1.0807101 3.2638099
4.0363998 -1.08824 3.26719
4.0657802 -1.0853699 3.27108
3.9509399 -0.94304699 3.2497699
4.17312 -1.10153 3.2706299
3.90677 -1.04273 3.2652199
3.8986499 -0.78331298 3.2458601
3.9525001 -0.79546398 3.2383599
3.9831901 -1.04647 3.2708199
3.9860001 -0.92469901 3.2523899
4.1939802 -1.06733 3.2727001
4.1855302 -1.1021301 3.27124
3.9423599 -0.93837899 3.25418
4.0171299 -1.08785 3.26543
3.99052 -1.04501 3.2676699
4.0518398 -1.0824701 3.2739899
4.0865202 -1.08894 3.27141
3.95189 -0.93804002 3.2565601
4.0987501 -1.08998 3.2727499
4.1627102 -1.0664901 3.26737
4.18926 -1.06569 3.2720001
4.2009101 -1.06723 3.2613101
4.17313 -1.1029 3.27124
4.1703601 -1.10446 3.26931
4.12604 -1.09219 3.2743001
4.1665902 -1.06499 3.27281
4.19278 -1.06371 3.2719901
3.9556601 -0.94450301 3.25284
4.2938499 -1.13094 3.26283
3.59566 -1.0395499 3.2680299
3.0416 -0.94684201 3.2789299
3.82688 -0.93697399 3.2722499
3.8564701 -1.0583 3.27193
3.8944299 -1.03192 3.27001
3.9491401 -1.08226 3.2611599
3.8796101 -0.92861098 3.2569101
3.9396501 -1.0423501 3.2681201
3.8989301 -0.78983498 3.24842
3.9519 -0.79447401 3.2397699
4.05582 -1.08544 3.27004
3.9629099 -0.93867898 3.2564001
4.02139 -1.0382299 3.2687199
3.97452 -0.94309998 3.2531099
4.0278001 -0.853791 3.2478099
4.0145202 -1.08947 3.2630401
4.1382198 -1.09558 3.2714601
4.1733398 -1.1067899 3.26775
4.1300101 -1.00774 3.33377
3.9129601 -0.90002501 3.2437
4.0719099 -1.04302 3.2866199
4.1578999 -1.0357701 3.31515
3.9544899 -0.94328701 3.2711401
3.76404 -0.87910002 3.24896
3.6251299 -0.94585502 3.29743
3.8913901 -0.88471198 3.27596
2.99071 -0.88517499 3.3348401
3.0014701 -0.88552302 3.3308499
3.0655701 -0.906726 3.31236
3.1231301 -0.91408402 3.31303
3.16065 -0.91421598 3.32429
3.17256 -0.92829299 3.2974
3.19034 -0.93073499 3.2934401
3.2432799 -0.93487197 3.2762201
3.20895 -0.92726803 3.2693901
3.7246799 -1.04642 3.3125501
3.4612601 -0.95067501 3.3255401
3.50191 -0.94431198 3.3510399
3.51157 -0.94160599 3.33023
3.57635 -0.92872602 3.3726399
3.58777 -0.93534702 3.33494
4.0457802 -1.02739 3.3166299
3.8742199 -0.90777898 3.3055899
3.8380499 -0.90985602 3.2745199
3.93347 -0.920407 3.2806799
3.88871 -0.865821 3.3275499
3.8823299 -0.86404401 3.3125801
3.4179399 -0.93376303 3.3192699
3.4459 -0.93978602 3.30405
3.77438 -0.88887203 3.2734799
3.9591601 -0.92174202 3.32423
3.0026801 -0.89378101 3.3311
3.11692 -0.908158 3.33284
3.09641 -0.918365 3.2931099
3.21788 -0.92258501 3.31567
3.2737 -0.92157602 3.34043
3.2128999 -0.91054201 3.31215
3.26232 -0.91090399 3.31987
3.41587 -0.951325 3.3090799
3.5628901 -0.97718501 3.2970099
3.6061499 -0.97844499 3.31077
3.42272 -0.89860201 3.33025
3.58459 -0.94427299 3.3257201
3.4991801 -0.95166701 3.2552199
3.48877 -0.91204399 3.31213
3.59057 -0.92964602 3.29654
3.9058101 -1.02079 3.2925601
3.97667 -1.01281 3.34514
4.1381001 -1.03869 3.3273001
4.1185598 -1.0450799 3.29954
4.1742201 -1.05725 3.2864001
4.2163901 -1.04377 3.31861
3.75353 -0.8955 3.2813301
3.8838799 -0.915003 3.32252
3.89329 -0.907134 3.3036201
3.94049 -0.91604501 3.2901101
3.8835101 -0.89086699 3.2565701
4.18645 -0.95789701 3.2958601
4.0028901 -0.94057202 3.2518899
3.0181201 -0.87250698 3.32307
3.22328 -0.931319 3.2683799
4.0412402 -1.03062 3.3058
3.8916199 -0.910339 3.3271799
3.82499 -1.01376 3.27933
3.2193899 -0.92551899 3.3120401
3.26776 -0.92961103 3.3169701
3.4481599 -0.94915098 3.32388
3.5062399 -0.95944798 3.3218999
3.65625 -0.934865 3.42731
3.6303301 -0.95785099 3.32706
4.1216002 -1.03769 3.3143599
4.0155902 -0.98598099 3.3355899
3.98629 -0.91254997 3.34899
3.0539701 -0.87512302 3.33411
3.57023 -0.97783101 3.29357
3.97595 -0.97961497 3.3975
3.3208001 -0.92967898 3.33218
3.8813801 -1.01683 3.2909801
3.2260499 -0.926328 3.3197401
3.6023099 -0.92688602 3.4283099
3.5169401 -0.94729298 3.34463
3.39976 -0.91772199 3.33283
3.6597199 -0.96531099 3.3140399
3.70225 -0.96469897 3.32377
4.2061801 -1.04922 3.31177
3.2021301 -0.91895902 3.32253
3.4212 -0.94236302 3.33266
3.80072 -0.97269797 3.3715501
3.8295 -0.86607802 3.2888701
3.1598699 -0.69393402 3.2715099
3.1196401 -0.90927601 3.3264999
3.45419 -0.95986301 3.3011701
3.0462201 -0.88561302 3.3669801
3.1370699 -0.90850502 3.3264799
3.0508599 -0.89094102 3.3097999
3.2014 -0.91269702 3.2962899
3.61953 -0.972642 3.3161399
3.6025901 -0.956698 3.28702
3.9942999 -1.02281 3.3099501
4.1050901 -1.03194 3.3173399
2.9851501 -0.884709 3.3422799
3.2823801 -0.92610198 3.33196
3.3234501 -0.93364 3.323
4.1858802 -0.94517899 3.3222401
3.191 -0.91850102 3.3185201
3.2464399 -0.92187101 3.3241401
3.37727 -0.93603802 3.3425901
3.28036 -0.905954 3.3329501
3.5315399 -0.95249301 3.34219
3.6379499 -0.97781801 3.3141799
3.3415799 -0.87270898 3.35146
3.91291 -0.86206698 3.32372
3.4024501 -0.92888898 3.31599
3.4695699 -0.94379801 3.30527
3.90961 -0.91135198 3.2821901
3.44942 -0.94959903 3.3141401
3.4402001 -0.95159101 3.3055799
3.87691 -0.90628999 3.28406
3.8608401 -0.85578102 3.33286
4.1477098 -0.93861699 3.2804101
3.5772901 -0.929317 3.36111
3.16747 -0.68914503 3.28052
3.5883801 -0.96153098 3.32813
3.96735 -0.90822399 3.3526001
4.05054 -1.01614 3.3436699
4.02106 -1.02069 3.3057201
3.97013 -0.99404299 3.3166499
3.8285301 -0.88892198 3.3626299
3.4737799 -0.963072 3.30708
3.4268899 -0.93829203 3.3095601
3.2307899 -0.92230701 3.23859
3.5034101 -0.94546503 3.30409
4.1170998 -1.03985 3.30462
3.9263501 -0.87305099 3.3055501
3.9558001 -0.80383199 3.2992899
3.2523301 -0.71755302 3.30654
3.10305 -0.91751802 3.3076301
3.05808 -0.90744102 3.30744
3.2034299 -0.93092197 3.3130701
3.5655 -0.97505701 3.3118401
3.4451699 -0.93835503 3.30479
3.9128599 -1.01238 3.3050499
3.97124 -1.01712 3.3095701
4.0655699 -1.03567 3.30215
4.04071 -1.02933 3.3036001
4.16224 -1.04173 3.30896
3.9325199 -0.87479699 3.3047099
3.89835 -0.90633601 3.3036499
3.1356001 -0.56166798 3.31727
3.1665299 -0.92144102 3.3152299
3.0283 -0.89837497 3.29952
3.0248699 -0.878694 3.2983
3.2296801 -0.92090303 3.2938099
3.4319899 -0.95067197 3.31286
3.56077 -0.94981998 3.32183
3.87518 -0.86635298 3.30915
2.99368 -0.91084099 3.2950301
3.2369299 -0.93471402 3.2990899
3.30232 -0.94136798 3.30387
3.2776 -0.93568403 3.30353
3.6078899 -0.97085398 3.2892101
3.9795201 -1.02467 3.3078699
3.4326401 -0.849235 3.3373301
3.34377 -0.94641203 3.3128901
3.2219601 -0.91771197 3.3006101
3.9988 -1.02457 3.3045499
4.1296701 -1.04233 3.3061299
3.8761201 -0.86587399 3.31129
3.1189101 -0.923271 3.2918601
3.1461301 -0.92759299 3.29579
3.4279499 -0.93682998 3.3094201
3.9338 -1.00099 3.30831
3.9368701 -0.87832302 3.3006301
2.94419 -0.90708601 3.2917199
3.0880301 -0.91608101 3.3001399
3.0506599 -0.91463101 3.2960601
3.3983901 -0.95506698 3.3009801
3.3863201 -0.95280999 3.2994001
3.5681901 -0.973961 3.30354
3.9030001 -1.0176899 3.30564
4.10009 -1.03978 3.3029799
3.7451799 -0.89427102 3.3150699
3.28619 -0.75221598 3.2757199
3.85447 -0.86347598 3.3122101
4.1118202 -1.04203 3.3045299
3.1821201 -0.93627399 3.2873499
3.6176 -0.97234303 3.2857499
3.9932499 -1.02351 3.3045399
3.46696 -0.96727198 3.30041
3.2216499 -0.93635398 3.2947299
3.18101 -0.92940199 3.2963901
3.5367301 -0.95838797 3.2885399
3.8921499 -1.0139 3.30286
3.9696701 -1.02508 3.3013101
3.98072 -1.00353 3.30743
4.1195698 -1.0401 3.30651
4.10641 -1.00414 3.3036499
3.3338699 -0.74044102 3.2845199
3.82445 -0.87081498 3.2957101
3.3905499 -0.96243298 3.2909801
3.4414999 -0.96129501 3.29649
3.5518799 -0.97697598 3.30021
3.4872601 -0.96497703 3.26789
3.6101501 -0.97793198 3.28144
3.59834 -0.97727901 3.276
4.0181098 -1.02771 3.30639
4.13131 -1.0372699 3.3087699
3.8743999 -0.86983401 3.30878
3.9201901 -0.87569797 3.30551
3.8852201 -0.77888203 3.2765901
3.5556901 -0.97937399 3.2986
4.0660701 -1.03286 3.30673
4.1026201 -1.04161 3.3034599
4.1394601 -1.05143 3.2983699
3.94168 -0.87623799 3.3076701
3.9502101 -0.81003499 3.29092
3.7453699 -0.858464 3.28918
3.3725801 -0.91942102 3.3615899
3.20573 -0.87602001 3.3843501
3.2712801 -0.89438999 3.3684599
3.46824 -0.96288699 3.2678499
3.6284101 -0.95200098 3.29023
3.8087101 -0.88346398 3.36938
3.59989 -0.94094199 3.30668
3.5713401 -0.93297303 3.2907
2.96417 -0.90119898 3.29667
3.8359799 -0.90908599 3.2715099
3.52601 -0.94405198 3.3159599
2.9918001 -0.885791 3.3175001
3.62884 -0.96218199 3.30913
3.9038601 -0.92491001 3.30161
4.04211 -1.03141 3.2983799
3.9585299 -1.00192 3.3027799
3.8901899 -0.87505102 3.2983301
3.59145 -0.98563802 3.2897899
3.58604 -0.98226798 3.29285
3.9121301 -1.01501 3.29861
3.9461701 -1.01942 3.2990301
3.98665 -1.02631 3.29863
4.0145202 -1.02794 3.30056
4.1518798 -1.04656 3.30037
3.8908999 -0.92079097 3.3013501
3.8738999 -0.90537 3.2932899
3.5220799 -0.97728097 3.28947
3.5997 -0.98506999 3.29285
3.56903 -0.98391598 3.29164
3.8775899 -1.01565 3.29849
4.0838599 -1.03798 3.30092
4.1134501 -1.0420001 3.30316
3.98611 -0.98738998 3.31076
3.72612 -0.89969498 3.3041301
3.83968 -0.91522199 3.27004
3.89467 -0.91726398 3.2821801
3.90763 -0.873887 3.3055
3.96189 -1.02663 3.2978201
4.1834698 -1.05124 3.3032999
3.92612 -0.91585398 3.2950201
3.9208701 -0.87571001 3.3012199
3.9236901 -1.02326 3.2971799
4.0006199 -1.0297101 3.2990501
4.0651598 -1.0312001 3.3011701
3.9435599 -0.92893898 3.30019
3.934 -0.91838098 3.28636
3.87097 -0.87002999 3.3078201
3.7921 -1.0042 3.29843
3.8550301 -1.01293 3.2980001
3.9068201 -1.01826 3.3013201
3.9783001 -1.0247101 3.3010499
4.0595398 -1.03982 3.2989399
3.9880199 -1.01056 3.3013799
3.92434 -0.92610401 3.27881
3.7657199 -0.86503297 3.2840099
3.9925599 -0.93658298 3.2947299
3.9026599 -0.86236697 3.32059
3.9645901 -0.80719298 3.2855599
4.0485702 -1.0337 3.3016901
4.1168599 -1.04641 3.30147
4.1627898 -1.05153 3.2992001
4.1152701 -0.99847299 3.30375
3.8840899 -0.92552298 3.27038
3.8875301 -0.79538798 3.2506101
3.9814999 -1.02107 3.30373
4.0894299 -1.0407701 3.30145
4.1124201 -1.0406801 3.30459
4.1532202 -1.04854 3.3020201
3.90766 -0.91582799 3.3150499
3.8796401 -0.92578399 3.27051
3.97891 -0.93785399 3.29515
3.97259 -0.934726 3.29549
3.95241 -0.91837502 3.29986
3.9081399 -0.86874199 3.3136401
3.9535201 -0.82916898 3.27631
3.94227 -0.80805498 3.2974501
4.0526199 -0.94460398 3.2967999
4.19906 -0.96065402 3.29653
3.9535699 -0.81505197 3.2862899
3.97826 -0.81537199 3.29213
2.98686 -0.898853 3.31336
3.0195701 -0.91256797 3.30124
2.96663 -0.88487703 3.3087201
3.0684099 -0.91777998 3.30147
3.2502201 -0.60049897 3.27477
3.2311599 -0.93897498 3.2925899
3.24805 -0.723239 3.29706
3.2425799 -0.93301499 3.2734001
3.2567699 -0.93373197 3.27075
3.32248 -0.95691597 3.28511
3.23682 -0.92684102 3.2888899
3.4895301 -0.97663897 3.2864201
3.5919499 -0.97359198 3.2805099
3.62479 -0.988931 3.2913499
3.56757 -0.98003697 3.29442
3.45977 -0.96625602 3.26
3.88815 -1.01825 3.2968099
3.9721401 -1.0275199 3.2967
3.9441199 -1.0241899 3.2972
3.8364401 -1.01671 3.29087
3.9335599 -1.0204999 3.2978699
3.9377999 -1.00369 3.2995701
3.9618299 -1.0015399 3.3069
3.88482 -0.87033403 3.30409
3.91765 -0.87534201 3.30249
4.17658 -1.05585 3.2982099
4.09162 -1.0399899 3.3001001
3.7411499 -0.879803 3.2762699
4.0054698 -1.03334 3.29462
3.85272 -0.86457998 3.3076899
4.1257501 -1.04509 3.2996099
4.0622101 -0.94636798 3.2946401
3.97121 -0.83154899 3.26547
3.5925701 -0.93041801 3.34588
3.0613501 -0.91125101 3.29355
3.03477 -0.90008402 3.2908101
3.0553 -0.91527802 3.30796
3.2190001 -0.934578 3.2932401
3.3649399 -0.953857 3.29565
3.45627 -0.96379203 3.2916999
3.4051299 -0.95638502 3.2960601
3.2833099 -0.944484 3.2899699
3.4191 -0.96336901 3.30144
3.8638 -0.91216898 3.3107901
3.96487 -1.02763 3.29353
3.9519601 -1.02473 3.29339
3.9503901 -1.00291 3.29761
3.8268299 -1.00852 3.29442
4.1160102 -1.04836 3.29566
4.1624799 -1.05334 3.29388
3.91642 -0.91283101 3.2909
4.0917201 -1.03678 3.2945399
4.0708299 -1.03914 3.2931199
3.9176099 -0.878802 3.2941899
4.1367402 -1.0474401 3.29386
4.2090201 -1.05722 3.29456
3.92082 -0.92482001 3.2962201
3.8779399 -0.87461102 3.2983999
3.61601 -0.97807997 3.2776699
3.87238 -1.01337 3.30216
3.94788 -1.0000401 3.3068099
3.7067699 -0.90729201 3.2630701
3.71065 -0.85762203 3.28687
3.87904 -1.01861 3.2980001
3.9988899 -1.03176 3.30019
4.0227699 -1.02668 3.3062899
3.96732 -1.00985 3.3022499
4.1019001 -1.04198 3.3032999
4.1805902 -1.04968 3.3034799
3.9163599 -0.92288703 3.2853701
3.89995 -0.87036097 3.31024
4.1841898 -1.05689 3.3018
4.1472998 -1.04969 3.30075
4.1659799 -1.05145 3.3004601
4.0845399 -1.0355099 3.3039601
4.02566 -1.03441 3.3032899
3.9363899 -0.82790101 3.27053
4.1877899 -0.94781899 3.29656
4.1999302 -0.961923 3.2960999
4.0450301 -1.02487 3.3417499
4.0374198 -1.02467 3.3408599
4.0001101 -1.0005701 3.34021
3.9016299 -1.01677 3.27564
4.0577002 -1.02154 3.34113
3.95226 -1.00582 3.2926199
3.9809401 -1.0115 3.3129101
3.9929099 -1.0277801 3.2824199
3.9170301 -0.99125397 3.3050699
3.9286301 -1.0107599 3.29529
4.0037398 -1.02212 3.2865801
3.8494401 -0.90398002 3.3255601
3.8452001 -0.902484 3.3269701
3.47856 -0.98884499 3.23663
3.6521101 -1.03484 3.2286899
3.5596001 -1.0256799 3.233
3.5300601 -1.02632 3.2381401
3.4245601 -1.0086499 3.2711699
3.60991 -1.03618 3.23647
3.4907 -1.0033 3.21053
3.47153 -1.0067 3.2195799
3.3810501 -1.00455 3.23299
3.4275 -0.99946803 3.21556
3.3271101 -0.99976802 3.2338901
3.31442 -0.99528998 3.23066
3.36604 -1.00477 3.2367101
3.2698801 -1.0222501 3.2597001
3.2414899 -0.99698502 3.23981
3.3760099 -1.01345 3.24739
3.3387401 -1.0028501 3.2392099
3.2502301 -0.98977399 3.23564
3.3085201 -0.99301499 3.2299099
3.2583301 -0.98970401 3.2335601
3.31059 -0.99150801 3.22855
3.2306299 -1.0120699 3.27088
3.22857 -0.98591602 3.2344699
3.2337899 -0.99112099 3.24141
3.48458 -1.01367 3.22785
3.4597399 -1.01518 3.2341599
3.42401 -1.0029401 3.2211101
3.26478 -0.74616802 3.2093599
3.27863 -1.00255 3.2498
