# .PCD v0.7 - Point Cloud Data file format
VERSION 0.7
FIELDS x y z
SIZE 4 4 4
TYPE F F F
COUNT 1 1 1
WIDTH 117
HEIGHT 1
VIEWPOINT 0 0 0 1 0 0 0
POINTS 117
DATA ascii
1.84351 -0.183092 7.3379402
1.868 -0.048528001 7.2964702
1.85131 0.18606099 7.3007498
1.83911 -0.14643499 7.3245301
1.86664 -0.044844698 7.3021302
1.83699 -0.185877 7.3327298
1.88442 0.0554021 7.28866
1.8703001 0.0075397999 7.2965202
1.88361 0.106021 7.2838998
1.87376 0.0536865 7.3168502
1.8515 -0.196308 7.3166199
1.87166 -0.00158333 7.3001199
1.85268 -0.120027 7.3029699
1.8689899 -0.023515301 7.3027802
1.87656 -0.0142742 7.3080702
1.8570499 0.0071926299 7.3295898
1.87625 0.110544 7.2983999
1.88193 0.0272374 7.2985902
1.8777601 0.085900903 7.3046198
1.8560801 -0.197538 7.3138099
1.87319 -0.0079367897 7.3099599
1.89489 0.046322901 7.30685
1.9162 0.082428403 7.2871599
1.87946 -0.022735 7.2951298
1.8950599 0.00048782901 7.3074799
1.8901401 0.0581549 7.3010502
1.9188 0.117992 7.2883201
1.8776799 0.136582 7.32372
1.88555 0.018622501 7.2987499
1.9098901 0.071122803 7.2924099
1.86244 -0.22084799 7.3136601
1.87494 -0.0215005 7.3108101
1.86288 -0.0219786 7.3058701
1.88954 -0.0250949 7.30721
1.86289 -0.16632999 7.31322
1.87845 0.077481799 7.3224902
1.82181 0.102324 7.3699098
1.87994 0.017668501 7.3094001
1.87413 -0.0151149 7.31287
1.90128 0.057554301 7.3099899
1.8876899 0.029377799 7.3021102
1.87963 -0.081595503 7.3000798
1.88852 0.0170378 7.2996101
1.89466 0.0024401599 7.31071
1.89335 -0.075742498 7.3008499
1.88829 -0.0031578401 7.2966399
1.90255 0.0240824 7.2986398
1.87994 -0.039010901 7.30443
1.91048 0.159787 7.3127799
1.88529 0.090826303 7.3602099
1.90411 0.103946 7.3224001
1.88902 -0.066585898 7.31218
1.90186 0.0035264499 7.3012099
1.8936501 0.034559101 7.3045902
1.91155 0.067687698 7.2925301
1.90332 0.095118299 7.31353
1.92092 0.106297 7.2806702
1.91536 0.0746333 7.2897
1.90362 0.0087289903 7.2904301
1.9079 0.073147297 7.2894101
1.88811 -0.060043901 7.2993798
1.89475 -0.0581051 7.3020701
1.8866301 0.079400003 7.3021898
1.91919 0.084416099 7.2871399
1.88429 -0.087007299 7.29954
1.89372 0.043162599 7.28302
1.89995 0.121625 7.2961702
1.89586 0.15095299 7.2939901
1.90272 0.0084027499 7.2921901
1.88888 -0.070616603 7.2953
1.89854 0.0992302 7.29673
1.8932199 -0.049430199 7.3050699
1.8892 -0.050068099 7.27528
1.90962 0.045244802 7.2922602
1.91968 0.085539103 7.28719
1.89174 -0.087962098 7.3060899
1.89057 -0.078029402 7.3051901
1.90543 0.0278934 7.2967
1.91108 0.047953799 7.29321
1.88859 0.13733 7.3081899
1.8921 -0.073325098 7.3055801
1.89109 -0.053010698 7.2915301
1.89203 -0.0448833 7.3079801
1.8840899 0.047915202 7.2835798
1.89995 0.070242599 7.28966
1.88771 -0.064111799 7.3120298
1.89378 -0.0507719 7.3048501
1.89823 0.0393534 7.3070202
1.90896 0.0519582 7.29808
1.9049799 0.057729099 7.2820702
1.89153 -0.079217598 7.3063002
1.88271 -0.046793599 7.2797999
1.81687 -0.00462936 7.3556299
1.8978699 -0.00059190299 7.3066101
1.8840801 0.0074036601 7.2992902
1.84858 0.048268199 7.3295598
1.89521 0.052062299 7.2920299
1.89624 0.0537274 7.29496
1.90081 -0.0049563898 7.3037
1.89178 -0.077431299 7.30931
1.89221 0.040144101 7.3164001
1.8589 0.106863 7.3122101
1.90098 0.079114601 7.31457
1.88227 -0.047374301 7.2838101
1.89851 -0.024602501 7.3070998
1.86171 -0.0153506 7.3004198
1.90588 0.0674439 7.3001599
1.9084899 0.0539429 7.29316
1.8925 0.0339352 7.2869902
1.8706599 -0.208202 7.3254099
1.88969 -0.0307578 7.31252
1.8747801 -0.076105803 7.30093
1.90517 0.042344902 7.3014002
1.88582 0.111916 7.3140702
1.8929501 -0.036844399 7.3115201
1.89747 0.0261408 7.2902398
1.89744 -0.0110551 7.3037
