# .PCD v0.7 - Point Cloud Data file format
VERSION 0.7
FIELDS x y z
SIZE 4 4 4
TYPE F F F
COUNT 1 1 1
WIDTH 122
HEIGHT 1
VIEWPOINT 0 0 0 1 0 0 0
POINTS 122
DATA ascii
4.3506198 0.70245397 6.0468998
4.34407 0.65252501 6.0464802
4.3383698 0.66792101 6.03719
4.3460598 0.69215101 6.0387602
4.3366399 0.60985303 6.0466499
4.3372002 0.60776401 6.0469499
4.3484201 0.70109898 6.0377998
4.3445301 0.66833001 6.0409002
4.34797 0.64291602 6.0514698
4.34482 0.63986701 6.0483298
4.3398399 0.622549 6.04427
4.3385501 0.61607099 6.0459499
4.3428302 0.66522402 6.0406599
4.3449001 0.67361897 6.0384698
4.3461599 0.70307201 6.03759
4.33529 0.61565 6.0419898
4.34373 0.66074002 6.04176
4.3425798 0.67864197 6.03615
4.3526101 0.71155602 6.0367899
4.3503199 0.70747697 6.0359802
4.34201 0.64337403 6.0440302
4.3371801 0.62456101 6.0400801
4.3501701 0.700746 6.0367699
4.33917 0.63787502 6.0402398
4.3455701 0.67197901 6.0384598
4.3435202 0.687038 6.0377898
4.3366399 0.61767399 6.0429401
4.3438902 0.640481 6.0296502
4.3416901 0.64695501 6.0426602
4.3558002 0.72570902 6.0353999
4.3359499 0.61412799 6.0441799
4.3376698 0.62186003 6.0423899
4.3436098 0.673765 6.04002
4.34514 0.69092798 6.0373502
4.3445902 0.69466698 6.0377302
4.33992 0.64861298 6.0422301
4.3343101 0.61438602 6.0450001
4.3466301 0.69596201 6.0349498
4.3428302 0.64001501 6.0453901
4.3434401 0.66578197 6.0405302
4.3438802 0.649656 6.0446901
4.3432102 0.66926801 6.0419002
4.3352499 0.60718602 6.0476999
4.34235 0.65112102 6.0450401
4.3429098 0.640127 6.0439501
4.3453002 0.67317599 6.0409098
4.3491201 0.70743901 6.0362601
4.3382101 0.61076802 6.0456901
4.33781 0.614452 6.0467801
4.3404999 0.62350398 6.0452299
4.34093 0.64431101 6.04318
4.3464599 0.67369801 6.04041
4.3427 0.69734299 6.0285802
4.34793 0.70050699 6.0380402
4.3401198 0.57485902 6.0495601
4.3445301 0.66493899 6.0398202
4.3484998 0.67936403 6.0395899
4.3730001 0.72480702 6.0368299
4.3394699 0.62099397 6.0454798
4.3499799 0.65531301 6.0412898
4.3329 0.57745099 6.0497999
4.3499599 0.70504701 6.0375099
4.33744 0.61557901 6.04847
4.3393502 0.68967301 6.0413699
4.3403702 0.64916003 6.0455198
4.3316998 0.58026701 6.0515199
4.33008 0.57895201 6.0514798
4.33426 0.60616899 6.0487199
4.3344598 0.61070198 6.0483298
4.3362002 0.614016 6.04843
4.3347802 0.625471 6.0471501
4.33636 0.63070297 6.0467801
4.3343 0.63537598 6.0469799
4.3404298 0.65465498 6.0444102
4.3431101 0.67716497 6.0425801
4.3457599 0.69306397 6.04076
4.3312998 0.58098 6.0513701
4.3303399 0.57563698 6.052
4.3305502 0.57718301 6.05199
4.3331199 0.61609298 6.0479498
4.3354001 0.62226897 6.0476999
4.33569 0.63347799 6.04671
4.3375802 0.64973098 6.0451999
4.3371601 0.65328503 6.04457
4.3413801 0.681346 6.0426602
4.3333602 0.606812 6.0490599
4.3333902 0.61818397 6.0479102
4.3415799 0.68865299 6.04177
4.33956 0.65656698 6.0446601
4.3319101 0.61501199 6.04878
4.3369899 0.62364399 6.0478601
4.3382401 0.63097799 6.0472698
4.3479199 0.70062798 6.04005
4.3369598 0.65840697 6.0443201
4.3408799 0.69348198 6.0416098
4.3412499 0.688694 6.0427299
4.3373499 0.62979501 6.0457802
4.3387699 0.626827 6.04497
4.34056 0.65811902 6.0452199
4.3397999 0.66504103 6.0447602
4.3441501 0.65059602 6.0446701
4.3407502 0.61771899 6.0468702
4.3481598 0.697743 6.03827
4.3376999 0.62306201 6.0475702
4.3474002 0.705872 6.0382099
4.3420801 0.66513199 6.0431499
4.3477001 0.69381797 6.04109
4.3441 0.66116601 6.0439801
4.33776 0.60371 6.0507102
4.3366599 0.60595298 6.05089
4.33535 0.62995499 6.0492501
4.34026 0.65190798 6.0467701
4.3407602 0.660918 6.0461001
4.3460302 0.69582701 6.0433102
4.34444 0.67998999 6.0448699
4.34936 0.70654303 6.0392299
4.34378 0.61304599 6.0459399
4.3583398 0.72668999 6.0352402
4.3456602 0.60989499 6.0493498
4.3446398 0.59960699 6.0493898
4.3417201 0.58516902 6.0516701
4.36133 0.68193102 6.0418501
