# .PCD v0.7 - Point Cloud Data file format
VERSION 0.7
FIELDS x y z
SIZE 4 4 4
TYPE F F F
COUNT 1 1 1
WIDTH 80
HEIGHT 1
VIEWPOINT 0 0 0 1 0 0 0
POINTS 80
DATA ascii
-1.09058 -0.472092 -0.557464
-0.90275198 -0.48957199 -0.53065002
-0.93077701 -0.47031599 -0.52753502
-0.94711697 -0.57641101 -0.52986199
-0.80827302 -0.49147499 -0.498133
-0.70550197 -0.50332302 -0.50538498
-1.02606 -0.49579099 -0.60917097
-1.08245 -0.46408901 -0.52877301
-0.79533702 -0.42016 -0.591124
-0.81817502 -0.59231001 -0.53383601
-0.74347401 -0.495215 -0.53473902
-0.82815802 -0.51186198 -0.57586902
-1.07967 -0.474379 -0.55569702
-0.82737398 -0.497866 -0.56147897
-0.70198298 -0.50834799 -0.55464298
-0.75101203 -0.49197999 -0.51914603
-0.90497798 -0.49634501 -0.556503
-1.06628 -0.45971799 -0.56115502
-1.09987 -0.453729 -0.55479598
-1.04568 -0.573313 -0.577402
-0.62621701 -0.527309 -0.55634499
-0.70477098 -0.51266003 -0.55824
-0.96482998 -0.48254099 -0.56623799
-1.02759 -0.59208602 -0.60602403
-0.63918197 -0.538706 -0.55309898
-0.62923503 -0.51438898 -0.55194801
-0.70168799 -0.50414997 -0.55384201
-0.83688301 -0.49713701 -0.55345899
-0.74717098 -0.50641203 -0.55077797
-1.08661 -0.48675799 -0.55578202
-0.63003302 -0.523386 -0.54386401
-0.63807499 -0.54293501 -0.544842
-0.62421602 -0.53447801 -0.541435
-0.80760998 -0.41685 -0.529194
-0.72413403 -0.50976402 -0.53824502
-0.62931699 -0.54215902 -0.54430598
-1.0465 -0.58719498 -0.58959299
-1.0882 -0.478127 -0.55752403
-0.75160402 -0.50678301 -0.551507
-0.99878597 -0.49333799 -0.552028
-0.78291798 -0.50328398 -0.54131502
-0.71385998 -0.52436203 -0.54537803
-0.97170502 -0.48548499 -0.55343902
-1.0891 -0.470285 -0.556256
-0.86565298 -0.493976 -0.55817401
-0.98172498 -0.495671 -0.55049598
-0.95843703 -0.48041701 -0.53921002
-0.96968502 -0.48024201 -0.54423702
-0.99808699 -0.48698401 -0.55446798
-1.11853 -0.46331099 -0.57121998
-0.73217797 -0.508771 -0.51517898
-0.64222097 -0.52600998 -0.52008402
-1.0499001 -0.57782799 -0.582982
-0.69249302 -0.50056899 -0.54315102
-0.99405903 -0.478145 -0.56796497
-0.88345098 -0.494427 -0.55900103
-1.07032 -0.46734399 -0.57768399
-1.08715 -0.46222201 -0.57018399
-0.90186203 -0.48666799 -0.56491399
-0.726421 -0.50687301 -0.543369
-0.71409601 -0.52244103 -0.54890001
-0.9989 -0.49507701 -0.55671901
-0.649468 -0.534899 -0.54923099
-0.62615597 -0.52652699 -0.54445899
-0.67391902 -0.51759499 -0.55266702
-0.69352299 -0.51585501 -0.56436002
-0.698798 -0.52133799 -0.55708498
-0.89775699 -0.491826 -0.56109297
-0.98005098 -0.47468501 -0.56323099
-0.71227598 -0.50848502 -0.55472302
-0.626984 -0.53156298 -0.550161
-0.77799702 -0.494403 -0.53544998
-0.631136 -0.52632201 -0.54787302
-0.99019998 -0.48533401 -0.568389
-0.98012 -0.49353999 -0.565292
-0.67376697 -0.51378697 -0.550336
-1.0402 -0.58527201 -0.60208899
-0.854397 -0.50140601 -0.58013999
-0.698708 -0.50354898 -0.54841202
-0.84702098 -0.49313301 -0.56072402
