# .PCD v0.7 - Point Cloud Data file format
VERSION 0.7
FIELDS x y z
SIZE 4 4 4
TYPE F F F
COUNT 1 1 1
WIDTH 373
HEIGHT 1
VIEWPOINT 0 0 0 1 0 0 0
POINTS 373
DATA ascii
-1.3875099 0.77375698 3.0339799
-1.13706 0.75819802 2.95351
-1.01933 0.72958797 2.84252
-1.42509 0.788369 3.04971
-1.19424 0.75185901 2.9128201
-1.018 0.73496598 2.8432701
-1.1129301 0.71722198 2.7947099
-1.09519 0.73646301 2.87778
-1.064 0.73902202 2.88485
-1.08312 0.783575 2.7973001
-1.24923 0.721286 2.8467801
-1.21694 0.762761 2.94102
-1.0766799 0.76415199 2.7457399
-1.06838 0.77548403 2.7821901
-1.24388 0.70663297 2.8724301
-1.22653 0.74152601 2.8900199
-1.18248 0.759377 2.9344399
-1.03734 0.76449502 2.7676499
-1.1075 0.74543297 2.9184799
-1.12679 0.75484902 2.9248099
-1.2655801 0.71428001 2.8408799
-1.2050101 0.76571101 2.9537699
-1.04024 0.76592398 2.76124
-1.1076699 0.74767101 2.9363
-1.10607 0.745646 2.9075201
-1.18729 0.75769901 2.92574
-1.15481 0.75311202 2.92275
-1.04583 0.76811099 2.83726
-1.08246 0.77096599 2.7704999
-1.16435 0.75673699 2.9212101
-1.05557 0.74961102 2.89606
-1.0718 0.76830697 2.9130499
-1.11595 0.81769103 2.79181
-1.26244 0.72460002 2.8604
-1.22752 0.73876202 2.88306
-1.28482 0.79402798 2.9131701
-1.05963 0.76893902 2.7841001
-1.06987 0.77065802 2.7599399
-1.10101 0.74319702 2.9068799
-1.01389 0.750471 2.8975201
-1.07092 0.74453199 2.9047699
-1.14096 0.767474 2.91346
-1.04478 0.772695 2.89396
-1.17442 0.75760603 2.9333501
-1.09544 0.74385399 2.9072001
-1.0493701 0.76275301 2.7836599
-1.30046 0.729343 2.8724699
-1.2397701 0.765338 2.9416699
-1.15767 0.77800602 2.7095399
-1.10827 0.74376798 2.91028
-1.24418 0.75512201 2.9175
-1.20347 0.82310599 2.7600601
-1.04334 0.76545203 2.7860501
-1.02817 0.74957299 2.8884799
-1.30145 0.73059398 2.8745601
-1.22814 0.77391702 2.9399099
-1.2736599 0.72437298 2.8661201
-1.24251 0.72937 2.8524201
-1.3604701 0.81223398 2.89975
-1.12862 0.77559501 2.7028601
-1.21031 0.78839397 2.7316699
-1.0441999 0.76680797 2.7945199
-1.2328399 0.76463801 2.9430699
-1.18401 0.76229399 2.9269199
-1.12835 0.707178 2.65274
-1.05457 0.77113801 2.75562
-1.16714 0.75537699 2.92294
-1.19121 0.75599498 2.92977
-1.24028 0.72448802 2.8759999
-1.03534 0.74708903 2.8898101
-1.2689199 0.72755897 2.8619699
-1.02505 0.74269903 2.8917699
-1.3790801 0.78081799 2.98035
-1.4388 0.80548102 3.0000899
-1.0485801 0.765769 2.79338
-1.2283601 0.79327297 2.73947
-1.32822 0.77616501 2.9751501
-1.3415101 0.80759197 2.7692499
-1.08927 0.74284601 2.9044499
-1.16243 0.75596899 2.92327
-1.11571 0.75805402 2.83179
-1.27465 0.866521 2.9976499
-1.24306 0.75507802 2.9424601
-1.02264 0.74657702 2.8943501
-1.22879 0.78927702 2.7378099
-1.04582 0.76278502 2.79949
-1.4339401 0.80383497 2.9976799
-1.4107 0.78398901 2.97913
-1.37431 0.77370203 2.9746599
-1.3991801 0.78245598 2.9827399
-1.34194 0.80971497 2.77403
-1.3756 0.77103901 2.9686699
-1.2594 0.75770199 2.9291799
-1.15942 0.754435 2.9247701
-1.36665 0.83113003 2.8091099
-1.26125 0.79854202 2.75263
-1.22695 0.766985 2.93996
-1.24808 0.79930401 2.7507999
-1.15671 0.77678698 2.7132599
-1.31279 0.758784 2.9454601
-1.2041 0.75872999 2.93223
-1.27279 0.72530901 2.8600099
-1.18705 0.77705503 2.7128999
-1.23321 0.76146001 2.9370899
-1.41471 0.793302 2.98527
-1.15519 0.75263703 2.92519
-1.4033 0.78599203 2.98084
-1.24027 0.76503402 2.9182999
-1.07321 0.74878699 2.9084201
-1.0334001 0.70575303 2.7630601
-1.23272 0.79134101 2.8783901
-1.15925 0.75788999 2.7567201
-1.1543 0.81356001 2.8775499
-1.23195 0.81710303 2.85077
-1.4002301 0.782116 2.98227
-1.08145 0.74276 2.9012799
-1.33487 0.77654302 2.9741399
-1.22094 0.76145798 2.9338
-1.31967 0.77703202 2.96842
-1.1567301 0.75151199 2.9224701
-1.06374 0.75243902 2.9037001
-1.02794 0.74678802 2.89714
-1.0506999 0.76188201 2.7776
-1.11062 0.73991102 2.90978
-1.0142 0.74784702 2.8973601
-1.10343 0.74745703 2.90872
-1.3368599 0.77915901 2.97913
-1.396 0.78630102 2.9829099
-1.16386 0.75226802 2.9214599
-1.2017601 0.75133699 2.93027
-1.02189 0.754179 2.8982201
-1.0804 0.74041802 2.9022999
-1.17579 0.74781102 2.92346
-1.1569099 0.76219797 2.9158499
-1.06949 0.74834299 2.9040699
-1.2155499 0.76093 2.9343801
-1.05975 0.76039398 2.89361
-1.11294 0.75102699 2.90833
-1.25723 0.72519702 2.85923
-1.29592 0.79957902 2.7490699
-1.16722 0.78165299 2.71523
-1.1375999 0.772753 2.7025001
-1.0507801 0.76341999 2.7952299
-1.33404 0.779432 2.9692199
-1.2445 0.76234102 2.93994
-1.10021 0.743361 2.9068799
-1.44959 0.80615199 2.9983799
-1.46673 0.806687 2.9873099
-1.0625401 0.75035203 2.9084401
-1.07498 0.74264097 2.9008501
-1.0351501 0.74663299 2.87661
-1.38413 0.78802198 2.99754
-1.23097 0.72385103 2.8584099
-1.1365 0.73700303 2.8547599
-1.27817 0.79252303 3.01829
-1.0371701 0.753546 2.9006701
-1.05918 0.75416398 2.7962699
-1.26887 0.72537702 2.84901
-1.3014899 0.76438898 2.9275401
-1.1448801 0.74065202 2.85448
-1.07111 0.74745601 2.8912599
-1.4398 0.80650598 2.9992199
-1.03269 0.74948299 2.83286
-1.23431 0.75560302 2.6113901
-1.38666 0.78903902 3.0015199
-1.38139 0.78667301 2.99405
-1.39185 0.80756003 2.89726
-1.20187 0.79026097 2.87444
-1.2591701 0.71534002 2.8270099
-1.03062 0.74441499 2.8866401
-1.20228 0.76590198 2.68625
-1.10567 0.74107999 2.89451
-1.47777 0.79786998 2.8775201
-1.16029 0.75498599 2.63521
-1.26802 0.72295201 2.85409
-1.07725 0.74606901 2.8913
-1.41799 0.79290199 2.9776101
-1.41275 0.78978401 2.96767
-1.04371 0.74582303 2.8611701
-1.25208 0.70719999 2.83359
-1.30437 0.71248603 2.84547
-1.37272 0.79702002 3.02474
-1.43097 0.789204 2.96264
-1.17909 0.75753999 2.6754
-1.06299 0.749717 2.9001801
-1.10496 0.75075603 2.90891
-1.4231 0.78341001 2.97403
-1.2998199 0.78237498 2.7011199
-1.28917 0.72805399 2.8654201
-1.04111 0.74611503 2.8837099
-1.32232 0.77805001 2.9727299
-1.39746 0.78517902 2.97065
-1.07708 0.762357 2.8512001
-1.21673 0.78580898 2.7244301
-1.1700799 0.772452 2.68238
-1.40215 0.79184198 2.73329
-1.3308901 0.77775401 2.6874499
-1.08075 0.74699402 2.9185801
-1.2636 0.72209901 2.8570099
-1.08217 0.73668599 2.89977
-1.27806 0.72565699 2.84273
-1.1107399 0.749358 2.9124701
-1.22689 0.76402903 2.67821
-1.38982 0.78969502 2.9865799
-1.3057801 0.77080798 2.9544699
-1.07204 0.74541903 2.8998599
-1.01088 0.74525499 2.9116299
-1.19389 0.73856002 2.8693099
-1.06532 0.75156701 2.9060099
-1.02775 0.767694 2.7953801
-1.1914001 0.75380999 2.6671
-1.15025 0.76206303 2.68643
-1.32687 0.76962 2.9460599
-1.09188 0.74463499 2.90101
-1.02715 0.73619503 2.8845401
-1.32552 0.77767098 2.9468801
-1.03598 0.76964098 2.7603199
-1.37044 0.76639199 2.6737001
-1.23798 0.75946802 2.66326
-1.06704 0.751073 2.89943
-1.1741199 0.75243801 2.8942201
-1.17483 0.745107 2.89518
-1.39105 0.78752601 2.98721
-1.4199899 0.78132999 2.9686201
-1.39867 0.787175 3.0090699
-1.31884 0.71822703 2.85689
-1.3945 0.78779298 2.9932201
-1.3141201 0.72879303 2.8663001
-1.18761 0.74294299 2.8885901
-1.09359 0.73973602 2.8975699
-1.04073 0.74745798 2.8898001
-1.04857 0.75948298 2.8485999
-1.4122 0.761868 2.6740799
-1.24698 0.75694501 2.6572499
-1.1738501 0.754228 2.65992
-1.14802 0.74596202 2.64605
-1.3961101 0.78535903 2.9737799
-1.15986 0.75901002 2.8996699
-1.47113 0.78366703 2.88269
-1.43171 0.78390098 2.8882599
-1.2554899 0.79251498 2.91433
-1.43685 0.80807197 2.7631099
-1.40352 0.80194801 2.7537301
-1.34464 0.78723902 2.7295001
-1.31901 0.775401 2.6961401
-1.19991 0.75128198 2.6582201
-1.08989 0.74091202 2.9009099
-1.33507 0.80117702 3.0697401
-1.43619 0.76658499 2.9696901
-1.2361 0.73558003 2.90695
-1.13344 0.73507702 2.91014
-1.29497 0.76457399 2.9404299
-1.1360101 0.75068402 2.9146099
-1.09863 0.73869097 2.88885
-1.41091 0.79266798 2.98475
-1.3201801 0.78110498 2.9617
-1.4580801 0.80468398 2.9953001
-1.47563 0.78473002 2.8819799
-1.13341 0.76240301 2.8380101
-1.3817199 0.79567599 2.74523
-1.33219 0.793064 2.73879
-1.25753 0.76032299 2.6738501
-1.1933399 0.75372303 2.6593399
-1.16347 0.74761403 2.64677
-1.06669 0.74817097 2.8926301
-1.41359 0.79360402 2.7360899
-1.4263 0.794622 2.74033
-1.3757401 0.79745001 2.7439001
-1.34009 0.79285598 2.7377
-1.21813 0.777946 2.7060399
-1.26283 0.77864701 2.72471
-1.28267 0.77665401 2.7248499
-1.39595 0.78190202 2.97065
-1.40091 0.78248602 2.9725499
-1.14104 0.761545 2.91804
-1.17881 0.756365 2.9120901
-1.237 0.760647 2.9288399
-1.03114 0.754628 2.9017701
-1.14188 0.75556302 2.9181099
-1.15394 0.75471902 2.9178801
-1.23692 0.75617301 2.93173
-1.27913 0.75866699 2.9425099
-1.1905 0.77616102 2.69768
-1.16842 0.76898497 2.6898899
-1.17318 0.76911902 2.69102
-1.22935 0.76724797 2.70719
-1.21696 0.77717698 2.70625
-1.29202 0.77726299 2.7246101
-1.30445 0.78615397 2.7363801
-1.26627 0.781048 2.7155199
-1.25126 0.78182602 2.71176
-1.33035 0.79294503 2.7363701
-1.3484499 0.79468101 2.7388401
-1.38097 0.79351997 2.7417901
-1.42583 0.796938 2.7500801
-1.41687 0.79209101 2.7336299
-1.17231 0.76903099 2.69192
-1.1608599 0.76553398 2.6893499
-1.39845 0.78040802 2.97136
-1.05762 0.75202298 2.8454101
-1.28127 0.76635599 2.93785
-1.20665 0.762694 2.91873
-1.23763 0.76266903 2.9275801
-1.20249 0.75809997 2.91819
-1.21113 0.75861901 2.92168
-1.24673 0.75808001 2.9307799
-1.15431 0.75523502 2.91855
-1.01676 0.753887 2.89785
-1.10136 0.74277198 2.8989
-1.27696 0.766334 2.9365599
-1.25463 0.73044097 3.0329199
-1.1974 0.75934702 2.8805301
-1.22043 0.76402903 2.8959401
-1.28791 0.76784497 2.9382601
-1.33614 0.77035099 3.0205801
-1.12314 0.753093 2.91366
-1.10356 0.753456 2.8933499
-1.01745 0.75215799 2.8552201
-1.23279 0.76030499 2.8842299
-1.26001 0.76226699 2.8879399
-1.03066 0.753519 2.8380799
-1.0358 0.759812 2.90063
-1.4173 0.78989899 2.73262
-1.39942 0.79649001 2.7458999
-1.32967 0.78886497 2.7227499
-1.29179 0.78580099 2.7229099
-1.26353 0.78104401 2.71541
-1.34561 0.79101199 2.75278
-1.20504 0.77697402 2.7015901
-1.21723 0.77791399 2.7062199
-1.2586 0.77568102 2.72051
-1.2747 0.77685601 2.7265
-1.19733 0.77192003 2.6989
-1.16427 0.766177 2.6887801
-1.12115 0.76176798 2.67857
-1.36554 0.79108602 2.9809501
-1.36124 0.786138 2.9807601
-1.37828 0.79246598 2.9969001
-1.29462 0.76883298 2.94309
-1.1751601 0.753699 2.91009
-1.20359 0.75639802 2.9212401
-1.23283 0.75736803 2.9289999
-1.27452 0.76684397 2.9328201
-1.02483 0.76249498 2.88802
-1.42186 0.798343 2.7525699
-1.25975 0.78076297 2.7133801
-1.27922 0.78337198 2.7202101
-1.38219 0.79355901 2.74965
-1.27808 0.77682298 2.72861
-1.3426501 0.79479498 2.7376599
-1.17211 0.76376897 2.68331
-1.24274 0.77374399 2.7193601
-1.42843 0.82283098 3.00809
-1.25709 0.76758498 2.9358799
-1.29728 0.77104199 2.9451399
-1.13755 0.75508499 2.9175799
-1.09149 0.736485 2.8891799
-1.23201 0.77701199 2.7051799
-1.3014801 0.77953398 2.7265501
-1.2819901 0.78175801 2.71786
-1.43611 0.80145299 2.76647
-1.40595 0.79663599 2.74457
-1.14081 0.759767 2.67787
-1.15356 0.75885201 2.68641
-1.1294 0.76462102 2.8320701
-1.40912 0.79824799 2.97983
-1.41014 0.78726602 2.97645
-1.32491 0.78177899 2.96525
-1.22833 0.75803101 2.92766
-1.16266 0.753865 2.9098599
-1.20076 0.75211602 2.9174399
-1.18818 0.75989902 2.9113901
-1.0549001 0.75086403 2.8572199
