# .PCD v0.7 - Point Cloud Data file format
VERSION 0.7
FIELDS x y z
SIZE 4 4 4
TYPE F F F
COUNT 1 1 1
WIDTH 298
HEIGHT 1
VIEWPOINT 0 0 0 1 0 0 0
POINTS 298
DATA ascii
5.5524302 -1.2693 3.31705
5.4095402 -1.2788399 3.31951
5.3793001 -1.29724 3.3048201
5.7813601 -1.35641 3.31112
5.37222 -1.2701499 3.3229201
5.46386 -1.274 3.3142099
5.3049698 -1.26855 3.31057
5.2428398 -1.25428 3.31406
5.70435 -1.35281 3.28479
5.5496502 -1.26298 3.2921801
5.7740598 -1.36576 3.2813799
5.2831302 -1.26451 3.29649
5.4047799 -1.28365 3.29933
5.6793599 -1.3257101 3.28513
6.0151501 -1.39792 3.2720301
5.5722299 -1.31648 3.2846401
5.2962399 -1.27732 3.28111
5.2630901 -1.26974 3.28473
5.4814701 -1.29941 3.2902501
5.7834401 -1.36533 3.2620201
5.2568598 -1.2654901 3.29723
5.4081001 -1.2722501 3.29842
5.2293701 -1.26904 3.2764399
5.2540102 -1.26282 3.29652
5.2343602 -1.26296 3.2799399
5.3727298 -1.27063 3.3008499
5.7635498 -1.36985 3.26597
5.67904 -1.34117 3.2748699
5.4959202 -1.30635 3.29795
5.5711699 -1.32146 3.28283
5.6817999 -1.35373 3.2722499
5.6716299 -1.3216799 3.28742
5.4805198 -1.29435 3.2915399
5.5815401 -1.30178 3.2934599
5.8319101 -1.27723 3.34501
5.2304602 -1.27578 3.27544
5.2938099 -1.28127 3.28157
5.63169 -1.32658 3.2869999
5.7550802 -1.3236901 3.28708
5.9158001 -1.3179801 3.17822
5.4619098 -1.30146 3.2872901
5.6782398 -1.3295 3.2866499
5.9877601 -1.37018 3.2750499
5.8205099 -1.34716 3.28386
5.9502802 -1.34443 3.2946501
5.8070502 -1.30161 3.3127501
5.77388 -1.3231699 3.29023
5.2508101 -1.25646 3.3032801
5.2747898 -1.2314 3.3169401
5.4739399 -1.29234 3.29439
5.77742 -1.38196 3.2629099
5.7418399 -1.35568 3.26016
5.70508 -1.3278199 3.2895601
5.94805 -1.2891901 3.1753399
5.2579398 -1.26357 3.2883699
5.3713799 -1.26956 3.3008399
5.5901999 -1.3394001 3.27297
5.64115 -1.31874 3.2897601
5.9573002 -1.3948801 3.27037
5.93683 -1.37457 3.27461
5.9651198 -1.3396 3.1738501
5.3372698 -1.27977 3.2925999
5.4284101 -1.30331 3.2869599
5.43016 -1.29532 3.2795999
5.4644499 -1.29649 3.29215
5.5455999 -1.29364 3.3011501
5.6426601 -1.32244 3.29092
5.8442998 -1.35866 3.2827001
5.9131298 -1.37953 3.27476
5.3063798 -1.37586 3.27864
5.2763901 -1.27645 3.29199
5.3692799 -1.28452 3.2927799
5.4498901 -1.28949 3.2938299
5.4935598 -1.2965699 3.29406
5.5632 -1.30793 3.2943499
5.6328902 -1.30898 3.29634
5.8250999 -1.3472199 3.2902901
5.8287401 -1.33974 3.2975399
5.9035301 -1.36443 3.2863901
5.8365302 -1.33358 3.2876599
5.2438598 -1.27152 3.29353
5.3187299 -1.2829601 3.28913
5.3436499 -1.28424 3.29194
5.43396 -1.2941 3.29721
5.4477501 -1.29335 3.2873099
5.5233302 -1.2994 3.3066001
5.64884 -1.317 3.29603
5.6767902 -1.32301 3.2946899
5.7198801 -1.32829 3.29636
5.8509998 -1.34043 3.2973001
5.9987702 -1.37222 3.28969
5.5443001 -1.30352 3.28861
5.59232 -1.30197 3.29723
5.2606502 -1.27121 3.28918
5.4410501 -1.29283 3.2906599
5.5234499 -1.3077199 3.29088
5.9814901 -1.35481 3.28949
5.8040299 -1.33413 3.2916601
5.7530599 -1.32542 3.29146
5.3614001 -1.2412601 3.3041201
5.4240298 -1.25415 3.28655
5.31563 -1.24024 3.3168099
5.3334198 -1.23274 3.31392
5.4711199 -1.25121 3.3151901
5.5593801 -1.27179 3.29861
5.5183501 -1.25704 3.3118801
5.49756 -1.26279 3.31389
5.4794798 -1.25126 3.3165801
5.4569302 -1.2467 3.3150499
5.5274701 -1.25543 3.3180101
5.59273 -1.2634799 3.3197601
5.6588202 -1.2749 3.3134799
5.35144 -1.23447 3.3164599
5.53234 -1.25603 3.31932
5.4134698 -1.24292 3.3152499
5.4296799 -1.24575 3.31744
5.4215598 -1.2387201 3.3146999
5.6935101 -1.27863 3.3166001
5.64568 -1.26713 3.3168001
5.67554 -1.26987 3.3120201
5.4682999 -1.25512 3.3191199
5.2733002 -1.22789 3.3178301
5.4145999 -1.24947 3.31692
5.41079 -1.24256 3.3163199
5.5262399 -1.2569 3.3180101
5.3857598 -1.24185 3.31391
5.4623699 -1.2525899 3.32003
5.6647601 -1.27433 3.3166599
5.7695198 -1.29368 3.3192699
5.7278099 -1.27934 3.3127699
5.81881 -1.29449 3.31709
5.8592801 -1.29892 3.3159201
5.4587302 -1.24912 3.3112099
5.4867201 -1.2548 3.3146999
5.5592499 -1.26142 3.3131299
5.6146998 -1.2683901 3.31533
5.7621398 -1.28684 3.3159101
5.3430901 -1.23395 3.3120899
5.5213599 -1.25872 3.3133099
5.5847402 -1.26582 3.3139
5.4656 -1.2540801 3.3123
5.6153402 -1.27412 3.31721
5.6547799 -1.2745399 3.3153501
5.7974 -1.29241 3.3180699
5.9207201 -1.30226 3.1689701
5.9632802 -1.2991 3.17623
5.3066301 -1.2397799 3.30845
5.4401002 -1.25271 3.3087599
5.65061 -1.27616 3.31025
5.6448398 -1.26783 3.3108001
5.70824 -1.28066 3.3130801
5.8499298 -1.29839 3.3166101
5.8647499 -1.2959501 3.31828
5.7887101 -1.29237 3.31552
5.5534902 -1.2633801 3.31141
5.7759099 -1.289 3.31392
5.9196501 -1.30555 3.1605501
5.9618201 -1.30592 3.1756301
5.6199899 -1.27237 3.3109601
5.68859 -1.28631 3.31475
5.3641701 -1.24204 3.31043
5.6365199 -1.2727 3.31076
5.6771598 -1.27879 3.3111999
5.9292798 -1.30818 3.1671
5.56216 -1.26107 3.31265
5.37992 -1.24131 3.3099101
5.5535598 -1.2647901 3.3124101
5.9621701 -1.30503 3.18045
5.3902702 -1.24686 3.31002
5.4285798 -1.24115 3.3127201
5.9205098 -1.30801 3.15731
5.54038 -1.26402 3.31165
5.3525 -1.23859 3.3104
5.7836199 -1.2918299 3.3127899
5.4291902 -1.25405 3.30779
5.4112501 -1.2382801 3.31284
5.4762402 -1.26001 3.3085401
5.7056198 -1.28341 3.3112299
5.7150202 -1.28009 3.3117499
5.89359 -1.31264 3.31236
5.5831099 -1.2694401 3.3102601
5.5562401 -1.25771 3.3130801
5.6612601 -1.2800699 3.3103499
5.9562602 -1.30995 3.1745999
5.4018898 -1.23755 3.3154399
5.4953299 -1.24897 3.31619
5.65136 -1.27394 3.31371
5.7731299 -1.29229 3.3138101
5.79318 -1.2939399 3.3136599
5.7638798 -1.2814699 3.3146
5.6621499 -1.27944 3.3116901
5.2431302 -1.2266099 3.3157799
5.3210902 -1.2424001 3.3127601
5.33427 -1.23564 3.3155401
5.5640502 -1.26851 3.31253
5.2653999 -1.22521 3.31991
5.5135102 -1.25809 3.3155601
5.5538802 -1.27101 3.3159399
5.5469999 -1.26176 3.3155
5.7796602 -1.29866 3.31287
5.8108902 -1.29899 3.3127401
5.35849 -1.24105 3.3159201
5.6542401 -1.27441 3.3141699
5.4682102 -1.26097 3.31213
5.27777 -1.23471 3.31357
5.4892998 -1.26073 3.3125701
5.4971399 -1.25642 3.3132701
5.2853699 -1.2304 3.3143401
5.7325902 -1.2943799 3.3132901
5.6793199 -1.27877 3.3127601
5.7220602 -1.2851599 3.3122799
5.7504101 -1.2868299 3.3129101
5.84378 -1.30172 3.3120201
5.3871999 -1.24231 3.3138599
5.8799701 -1.3058 3.31215
5.6927099 -1.28274 3.3127799
5.8064198 -1.29679 3.31318
5.6816101 -1.2731301 3.3123901
5.5223298 -1.27074 3.3122599
5.5806899 -1.26893 3.31233
5.6156902 -1.27289 3.3124101
5.4148302 -1.2442501 3.31391
5.43718 -1.23785 3.3148899
5.9479899 -1.3050801 3.1800799
5.7182598 -1.28966 3.31762
5.8182502 -1.3041199 3.31779
5.3505998 -1.2368799 3.31991
5.4608598 -1.25174 3.3180599
5.5646601 -1.26337 3.3187599
5.6263499 -1.27659 3.3171699
5.6350198 -1.27434 3.31774
5.5542898 -1.2698801 3.31988
5.8120298 -1.2953399 3.31515
5.8741999 -1.3030601 3.31657
5.5071802 -1.25806 3.31863
5.2571998 -1.2246799 3.32375
5.48034 -1.25339 3.3213899
5.7778401 -1.29064 3.31949
5.71176 -1.2864701 3.3201699
5.4340701 -1.24244 3.3199799
5.6262898 -1.27583 3.3196599
5.8788199 -1.30384 3.3190401
5.76264 -1.28299 3.3225
5.5156598 -1.25761 3.3231399
5.76367 -1.28968 3.32127
5.2775402 -1.23074 3.31183
5.3745098 -1.2393301 3.31388
5.35285 -1.24788 3.31231
5.32901 -1.2356 3.3131499
5.31463 -1.2388 3.31299
5.4394798 -1.24791 3.31371
5.3994899 -1.24497 3.3141601
5.6227798 -1.27415 3.32213
5.6975999 -1.28232 3.3228099
5.7512798 -1.29181 3.3201799
5.7768602 -1.29389 3.32166
5.8417201 -1.30107 3.3217299
5.7569299 -1.28922 3.3245399
5.7820501 -1.2929 3.32463
5.9369702 -1.30399 3.1709599
5.3612199 -1.23771 3.31724
5.3390298 -1.2365 3.3178699
5.4846001 -1.25129 3.3176501
5.4338102 -1.24859 3.31621
5.4923201 -1.2539901 3.3169701
5.5513 -1.26591 3.3169
5.60008 -1.27632 3.3132501
5.5991802 -1.26864 3.31564
5.6777101 -1.2803 3.31463
5.7160702 -1.28502 3.3157001
5.8138299 -1.29509 3.3155601
5.8154202 -1.2891099 3.31549
5.8220201 -1.29765 3.31529
5.8540301 -1.30018 3.31639
5.8787098 -1.3149 3.3145101
5.9278698 -1.30533 3.17361
5.3665199 -1.238 3.31832
5.3892798 -1.24204 3.31795
5.4671001 -1.25094 3.3181701
5.4868202 -1.24831 3.3154399
5.5745902 -1.26475 3.3180201
5.5315099 -1.25903 3.3189299
5.6421499 -1.27915 3.3190801
5.6367602 -1.27147 3.3171301
5.7111602 -1.2826999 3.3153601
5.7656898 -1.2975301 3.3158801
5.85502 -1.30573 3.3157101
5.78755 -1.29326 3.3148799
5.4524798 -1.24971 3.32286
5.5886202 -1.26693 3.3219299
5.6114702 -1.27101 3.32038
5.6531401 -1.27922 3.3231299
5.7026901 -1.28155 3.32094
5.8336601 -1.29786 3.3203599
5.80406 -1.29905 3.32183
5.7964501 -1.28879 3.3210399
5.7532902 -1.28825 3.32024
5.7392602 -1.28678 3.3228199
