# .PCD v0.7 - Point Cloud Data file format
VERSION 0.7
FIELDS x y z
SIZE 4 4 4
TYPE F F F
COUNT 1 1 1
WIDTH 180
HEIGHT 1
VIEWPOINT 0 0 0 1 0 0 0
POINTS 180
DATA ascii
4.73593 0.72742999 5.1230001
4.6844301 0.735973 5.1501698
4.7650199 0.71741301 5.1308398
4.75529 0.72318 5.11163
4.7237301 0.72935599 5.1222601
4.7161198 0.73486203 5.1014299
4.7122698 0.734097 5.16573
4.6806898 0.73951203 5.1641102
4.7593498 0.72148103 5.1168399
4.65977 0.762115 5.0900402
4.7659898 0.72190797 5.1214199
4.6649499 0.75734699 5.1122298
4.6653299 0.75759703 5.0926199
4.73525 0.74483401 5.0964398
4.7606702 0.73044902 5.1224699
4.7433801 0.73621398 5.0467801
4.7447801 0.73359698 5.0756602
4.7740002 0.73132098 5.0648098
4.7383099 0.73785299 5.1240501
4.73524 0.74237698 5.0616298
4.6550002 0.756648 5.1690998
4.6591201 0.75639701 5.1405602
4.7253199 0.74046397 5.07899
4.7632499 0.73154098 5.1031599
4.71205 0.74144799 5.1410499
4.77284 0.73678899 5.0722098
4.77946 0.73459899 5.0446301
4.7733402 0.73391098 5.0426502
4.74224 0.73323601 5.13908
4.76792 0.72206903 5.15832
4.6921 0.74860901 5.0798998
4.67835 0.752406 5.0893502
4.6662598 0.75154799 5.1716399
4.7637901 0.73485202 5.0464401
4.7048502 0.75061798 5.06955
4.7424598 0.74011898 5.0440402
4.7055202 0.74345201 5.0763502
4.7305899 0.74130702 5.0404
4.7562699 0.72912902 5.0426502
4.73107 0.73580402 5.14538
4.7554202 0.73974401 5.0461202
4.6616602 0.75789499 5.1413999
4.65662 0.75489497 5.1623998
4.68822 0.75468302 5.08111
4.6711502 0.76218301 5.0917201
4.73524 0.74353498 5.0539498
4.7722602 0.72638702 5.0679402
4.7719302 0.720981 5.1658702
4.6960702 0.76021099 5.0467801
4.7484198 0.73482502 5.0409498
4.72334 0.74336702 5.0570998
4.7140799 0.74751598 5.0593801
4.7422299 0.74438602 5.0363002
4.6778598 0.76225901 5.09273
4.66085 0.75527197 5.15026
4.7827501 0.73480499 5.0313401
4.7674899 0.72176701 5.18718
4.70754 0.74931598 5.0615602
4.7349501 0.738226 5.0441198
4.7211299 0.74426597 5.0601301
4.7354298 0.74280298 5.0443602
4.7287202 0.74669999 5.0488801
4.7484798 0.73719603 5.0458002
4.7732 0.73455602 5.0394802
4.7888799 0.73360401 5.0342698
4.6866002 0.757245 5.07232
4.7743301 0.72165197 5.15306
4.6896601 0.75127798 5.07972
4.6989002 0.75215 5.0686002
4.7575002 0.73762202 5.04357
4.7649002 0.72039998 5.18051
4.7162099 0.74508798 5.06319
4.67874 0.75672501 5.09021
4.7754598 0.71655798 5.1578999
4.7849998 0.73674399 5.0457902
4.7543602 0.723975 5.1841698
4.70889 0.75136101 5.1412501
4.6622801 0.75726902 5.1413002
4.7451801 0.73843497 5.0489402
4.7149401 0.742266 5.06674
4.7011099 0.74697697 5.0724201
4.7241902 0.73873299 5.0574698
4.74791 0.73545498 5.0517302
4.67659 0.75447899 5.1115499
4.7269702 0.74451602 5.0605102
4.7491899 0.73212999 5.0561099
4.6602101 0.75524598 5.13481
4.6806402 0.754354 5.0970898
4.7102699 0.74640697 5.07234
4.7475801 0.72531801 5.18115
4.7532701 0.72109401 5.1903
4.7624102 0.717354 5.1891398
4.68366 0.74796098 5.0956101
4.6729102 0.75546002 5.0996499
4.72471 0.74147099 5.0638399
4.6623702 0.75469702 5.1648102
4.67803 0.76163 5.0996099
4.6704102 0.759372 5.1136398
4.7032199 0.74214101 5.0763402
4.6947298 0.74759799 5.08283
4.6669102 0.75905401 5.1244302
4.70046 0.74790198 5.08008
4.6919799 0.75433099 5.08359
4.7161798 0.74117702 5.0713601
4.72925 0.74168599 5.0613198
4.7473998 0.74040002 5.0560298
4.7590199 0.73529398 5.0525999
4.7643099 0.73495001 5.05233
4.7395902 0.73792601 5.0578699
4.7095098 0.74568701 5.0758801
4.7610202 0.73702198 5.0434399
4.7030902 0.74552602 5.0803699
4.7181401 0.73850399 5.07265
4.7260098 0.74190402 5.0663099
4.6673498 0.74994302 5.1234598
4.6656098 0.75920802 5.1287899
4.7163501 0.747765 5.0650902
4.65942 0.75603998 5.1567302
4.7107201 0.74615997 5.0728502
4.7616701 0.73395199 5.0495501
4.7580099 0.73643702 5.0510101
4.7726598 0.72632998 5.1293001
4.7278199 0.74223697 5.0657201
4.74792 0.73798001 5.0573802
4.7561798 0.72023398 5.18925
4.7256598 0.74691802 5.1158099
4.6740098 0.75024402 5.1195302
4.6683602 0.75607902 5.1302099
4.6886301 0.74936801 5.09901
4.6862001 0.74682701 5.0985398
4.6610398 0.75379097 5.1649199
4.6855202 0.74520701 5.1171198
4.69242 0.74198198 5.1146698
4.6663399 0.75100797 5.1416602
4.6786599 0.74277002 5.1217198
4.6536698 0.75474399 5.1645298
4.6682701 0.751194 5.1389599
4.68292 0.74660301 5.1162601
4.66186 0.75185299 5.1450901
4.66049 0.75210702 5.1489902
4.6778498 0.74982399 5.1209102
4.6607399 0.75160301 5.1442099
4.6554699 0.75330597 5.1633701
4.65169 0.75659299 5.17063
4.7546101 0.73371798 5.03584
4.7193599 0.75072002 5.0633798
4.7285399 0.73760903 5.0611501
4.7411499 0.73881102 5.0577102
4.7005 0.74560601 5.0714302
4.6577902 0.76220101 5.13482
4.7514 0.72487199 5.2006302
4.7419 0.73521799 5.1315999
4.7181702 0.74563003 5.06744
4.7115302 0.73896497 5.07897
4.70367 0.74550599 5.0826302
4.7041998 0.74675202 5.0912299
4.6978502 0.74185199 5.0968499
4.6897502 0.74606001 5.10813
4.6744399 0.75092202 5.1248202
4.6598101 0.75438398 5.1577802
4.6711702 0.75207603 5.1310301
4.7643299 0.73747498 5.0477099
4.75278 0.73517901 5.0517302
4.75318 0.73951203 5.0527501
4.7372198 0.73982799 5.059
4.7351298 0.74142098 5.0589499
4.75702 0.72116601 5.1924701
4.66537 0.75916201 5.1259799
4.7122402 0.74542397 5.06991
4.68925 0.75379199 5.0827699
4.7165799 0.75754499 5.1016798
4.6819601 0.75481898 5.0981398
4.6837201 0.74456102 5.0949302
4.70331 0.74519497 5.0987301
4.7203302 0.73896402 5.1973801
4.6819 0.74937898 5.1182699
4.6752901 0.74625099 5.1256399
4.6708298 0.74900001 5.1482601
4.6568999 0.75957203 5.1612501
4.6654801 0.75314802 5.1579399
