# .PCD v0.7 - Point Cloud Data file format
VERSION 0.7
FIELDS x y z
SIZE 4 4 4
TYPE F F F
COUNT 1 1 1
WIDTH 127
HEIGHT 1
VIEWPOINT 0 0 0 1 0 0 0
POINTS 127
DATA ascii
7.408 -0.71170002 5.1552901
7.37989 -0.89465499 5.1679602
7.3856902 -0.89409602 5.1654201
7.3938999 -0.83359897 5.1683202
7.4096699 -0.72934198 5.14499
7.4036999 -0.70656902 5.1476002
7.3742499 -0.91158301 5.17276
7.3886399 -0.90562999 5.1717
7.3873701 -0.84513801 5.16292
7.3868299 -0.91256797 5.1705899
7.3902798 -0.85521501 5.1683698
7.4198499 -0.66017997 5.1353402
7.3850598 -0.92622399 5.1727901
7.3832898 -0.92442399 5.1654801
7.4071002 -0.72445202 5.1519499
7.4157 -0.71333897 5.1446099
7.4146099 -0.70015597 5.1391001
7.4036398 -0.71949601 5.1457801
7.3847299 -0.91298401 5.1725602
7.3917298 -0.85357201 5.1655798
7.3870502 -0.84654403 5.1610699
7.3797498 -0.901227 5.1665602
7.39358 -0.83016402 5.1633101
7.40341 -0.71816099 5.1498899
7.3815899 -0.91724402 5.17415
7.3768201 -0.91362703 5.1693802
7.3839698 -0.90093303 5.1726599
7.3917298 -0.84387499 5.1653099
7.40239 -0.725133 5.1487999
7.3849101 -0.85680801 5.1622601
7.4073501 -0.71107101 5.1430802
7.4072099 -0.70068401 5.1465302
7.3790002 -0.89008301 5.1675801
7.3797402 -0.91253501 5.1725001
7.3874102 -0.84495503 5.1627798
7.38659 -0.82819599 5.1610599
7.38062 -0.901012 5.1758399
7.4040098 -0.71901399 5.1483998
7.3873901 -0.907906 5.1722798
7.3961601 -0.84146899 5.1654601
7.4121199 -0.72269797 5.15379
7.38799 -0.90447301 5.1724901
7.4211998 -0.66776103 5.14856
7.3751898 -0.90413499 5.1718202
7.3846402 -0.86704201 5.1698599
7.4042602 -0.71514797 5.1547999
7.4032202 -0.71329701 5.1438298
7.3813901 -0.87345999 5.1662798
7.3876801 -0.83321899 5.1676002
7.3825498 -0.86189198 5.1634402
7.3861399 -0.85524398 5.1666498
7.40694 -0.72198498 5.15307
7.3789101 -0.90143502 5.1711602
7.4049301 -0.72418702 5.1497102
7.4021101 -0.716034 5.1461802
7.3839798 -0.88861698 5.1573801
7.38766 -0.856493 5.1576099
7.4060998 -0.72561002 5.151
7.4031501 -0.71319503 5.1444998
7.3878498 -0.86410099 5.1574702
7.3899498 -0.846623 5.1540599
7.4126801 -0.67016101 5.1447701
7.38028 -0.91495299 5.1645198
7.3794298 -0.91111302 5.17103
7.40593 -0.69319302 5.1406598
7.39189 -0.83365703 5.1624098
7.3860798 -0.859833 5.1656599
7.3867002 -0.84867102 5.1652298
7.3767099 -0.92379898 5.1644602
7.38167 -0.89938599 5.1617999
7.38973 -0.83007002 5.1568499
7.3852701 -0.86647803 5.1589499
7.3776002 -0.92261201 5.17173
7.3889399 -0.85778397 5.15453
7.4061399 -0.72661 5.1424599
7.4077802 -0.71045202 5.13872
7.4125099 -0.659334 5.13379
7.3758001 -0.92917699 5.1655598
7.3815598 -0.88736498 5.1609602
7.38656 -0.865188 5.1577101
7.3826599 -0.902565 5.1615701
7.3826098 -0.85989201 5.1565099
7.40835 -0.71767098 5.1450601
7.4072399 -0.69941801 5.13936
7.3815598 -0.89522898 5.1617298
7.4035802 -0.71252102 5.1403999
7.4106798 -0.70293403 5.1447501
7.3891702 -0.829193 5.1550899
7.3741002 -0.92715198 5.1648698
7.39044 -0.84411502 5.1595001
7.4087601 -0.72047698 5.1489401
7.4072499 -0.70550698 5.1410599
7.3808699 -0.85214198 5.1584702
7.4088702 -0.69744301 5.14642
7.3783798 -0.91531199 5.1650801
7.3927202 -0.849527 5.1632299
7.4036899 -0.72500402 5.1437201
7.4011002 -0.70637 5.1426401
7.4077101 -0.690503 5.1403098
7.4056301 -0.72211099 5.1486402
7.3757601 -0.89594001 5.1630101
7.3811102 -0.83013099 5.1570301
7.4085598 -0.695391 5.1409702
7.3810902 -0.86011899 5.1599202
7.3722 -0.905415 5.1658201
7.3812499 -0.84663099 5.15909
7.39884 -0.71517098 5.1440501
7.3990402 -0.70700598 5.1426101
7.3779202 -0.91730899 5.1696501
7.37959 -0.84271401 5.15767
7.3782802 -0.85164398 5.1624398
7.3882198 -0.84728903 5.1645498
7.37042 -0.91583699 5.1673298
7.3810201 -0.899602 5.16857
7.3762298 -0.86353999 5.1639099
7.3707399 -0.89759499 5.16714
7.3878598 -0.85817301 5.16435
7.3744502 -0.91644901 5.17065
7.3828201 -0.866687 5.17132
7.38551 -0.88242298 5.1694102
7.38205 -0.89423901 5.1723499
7.4133601 -0.70276499 5.1489201
7.3937502 -0.84890503 5.1643901
7.4064202 -0.70109499 5.14501
7.3786998 -0.89652598 5.1669998
7.3800302 -0.89771903 5.1732998
7.3863401 -0.86034399 5.1693802
