# .PCD v0.7 - Point Cloud Data file format
VERSION 0.7
FIELDS x y z
SIZE 4 4 4
TYPE F F F
COUNT 1 1 1
WIDTH 78
HEIGHT 1
VIEWPOINT 0 0 0 1 0 0 0
POINTS 78
DATA ascii
1.8935 0.14611401 6.4815502
1.88665 0.076445699 6.5373001
1.90939 0.108838 6.4156299
1.89663 0.116021 6.4148302
1.86281 -0.0019271 6.4387898
1.8888201 0.037074499 6.4830599
1.88722 0.099281102 6.4124899
1.86838 6.1497398e-05 6.5473399
1.90079 0.115408 6.41675
1.89187 0.114156 6.4104099
1.8806601 -0.056583799 6.5378599
1.89132 0.057517398 6.4264102
1.91188 0.100957 6.41011
1.89631 0.085239202 6.4215498
1.9038399 0.113586 6.4164701
1.86081 -0.0092872595 6.4379001
1.91009 0.110715 6.4022999
1.89296 0.065999098 6.4316301
1.8998801 0.106995 6.4249501
1.89196 0.156248 6.4819698
1.89069 0.074234203 6.5195699
1.88495 0.043671001 6.42275
1.87852 0.111386 6.41013
1.88736 0.059804302 6.4274402
1.88915 0.071820199 6.5299501
1.89176 0.117903 6.4194198
1.87216 0.054880999 6.4312501
1.8868999 0.146099 6.4800701
1.88722 0.0121458 6.4228902
1.9008501 0.105936 6.4025402
1.89331 0.074096799 6.4203801
1.9033 0.0421924 6.4724598
1.89539 0.109729 6.4179001
1.88384 0.079980299 6.4362402
1.91309 0.060280699 6.4667201
1.89625 0.113842 6.41082
1.90132 0.158151 6.4782701
1.91764 0.046512902 6.4644699
1.89926 0.0889697 6.4162898
1.8853199 0.055590998 6.5350699
1.90108 0.154799 6.47646
1.90221 0.111511 6.4041901
1.88632 0.0175814 6.4225702
1.8885 0.022110701 6.4226699
1.90926 0.0548313 6.4688802
1.90195 0.107356 6.4093399
1.88348 0.057463899 6.5299001
1.89219 0.073853999 6.51757
1.89147 -0.0391916 6.5268898
1.8999701 0.0077057998 6.4830699
1.90387 0.042015102 6.48034
1.89127 -0.049988199 6.5261598
1.91127 0.109975 6.3990002
1.8907 0.056913 6.52562
1.92474 0.098181702 6.4801998
1.8997101 0.045308601 6.4767199
1.90114 0.0118052 6.4827299
1.9065 0.10396 6.3972998
1.90466 0.0451014 6.4797902
1.9060301 0.108882 6.4066801
1.90309 0.028742099 6.5671
1.90589 0.096989602 6.4089198
1.90528 0.039369401 6.4794502
1.90371 0.096596703 6.40769
1.90157 0.016088599 6.4802999
1.90368 0.047778402 6.4734998
1.8941 0.032937799 6.4265299
1.89793 0.051157601 6.4246602
1.8995 0.081783898 6.4211001
1.86028 -0.13288499 6.5431399
1.91108 0.107312 6.4105601
1.87958 -0.040170301 6.53332
1.90641 0.103742 6.4096999
1.90861 0.108681 6.4044099
1.89522 0.0111094 6.4785299
1.90413 0.034203101 6.48278
1.89956 0.074596003 6.5234799
1.9025199 0.108058 6.4003201
