# .PCD v0.7 - Point Cloud Data file format
VERSION 0.7
FIELDS x y z
SIZE 4 4 4
TYPE F F F
COUNT 1 1 1
WIDTH 68
HEIGHT 1
VIEWPOINT 0 0 0 1 0 0 0
POINTS 68
DATA ascii
5.2794399 -0.22642601 3.22651
5.2950401 -0.158226 3.17169
5.2793198 -0.18634801 3.2179899
5.2852802 -0.127057 3.2151201
5.28511 -0.120667 3.21386
5.2639499 -0.319318 3.2284501
5.2723198 -0.237837 3.2218299
5.24225 -0.35741901 3.25892
5.2779999 -0.132671 3.2237699
5.2198901 -0.55338001 3.27268
5.2778301 -0.123293 3.21526
5.2562299 -0.29281199 3.24441
5.2739401 -0.197219 3.22191
5.2209802 -0.51086301 3.2623501
5.2132802 -0.17614999 3.22089
5.2553701 -0.51941502 3.2161601
5.2118201 -0.177081 3.2124801
5.3031802 -0.216427 3.18575
5.2509999 -0.506347 3.2297599
5.2309499 -0.189292 3.2093699
5.2876701 -0.27017301 3.20383
5.2681198 -0.371077 3.22001
5.2179499 -0.188437 3.2309201
5.2662401 -0.42289799 3.22527
5.2576399 -0.48274201 3.2305801
5.2210999 -0.180097 3.2304101
5.2175798 -0.161008 3.2216101
5.26438 -0.44092399 3.22453
5.2550402 -0.434596 3.2235
5.2472801 -0.49167299 3.23281
5.2164998 -0.163184 3.2207401
5.2691698 -0.33304 3.21246
5.27284 -0.29624599 3.2118299
5.2201099 -0.159778 3.2211001
5.2737298 -0.30899099 3.21363
5.2507701 -0.49614599 3.23208
5.27109 -0.31790999 3.2121201
5.27631 -0.283167 3.21243
5.2765398 -0.31286201 3.2156501
5.2745099 -0.324404 3.2159901
5.2648802 -0.420993 3.2254601
5.2699299 -0.25654 3.2511499
5.2520199 -0.45205599 3.2882299
5.26863 -0.21305799 3.2261
5.2123599 -0.16331699 3.2313499
5.2863698 -0.323149 3.22258
5.2849898 -0.37088999 3.2535
5.2796001 -0.274165 3.20979
5.27987 -0.26923299 3.20715
5.27249 -0.418001 3.25546
5.2859101 -0.27695799 3.2356801
5.2848001 -0.30348 3.24071
5.2148399 -0.166568 3.2343099
5.2835898 -0.314841 3.2486601
5.2867699 -0.30052799 3.24734
5.2124901 -0.163693 3.24891
5.2154799 -0.204394 3.26192
5.2659402 -0.429295 3.2556601
5.2147999 -0.187318 3.2567799
5.2182002 -0.190529 3.25999
5.2221298 -0.16927899 3.25808
5.2105498 -0.19764701 3.2481201
5.2705302 -0.26283801 3.26332
5.2882299 -0.37796 3.25319
5.2780099 -0.40521899 3.25828
5.2773499 -0.42650801 3.2601299
5.223 -0.159642 3.25176
5.23559 -0.57391101 3.3016
