# .PCD v0.7 - Point Cloud Data file format
VERSION 0.7
FIELDS x y z
SIZE 4 4 4
TYPE F F F
COUNT 1 1 1
WIDTH 110
HEIGHT 1
VIEWPOINT 0 0 0 1 0 0 0
POINTS 110
DATA ascii
4.7424502 0.32703099 7.9467201
4.7711301 0.42586601 7.9309602
4.7651801 0.37500399 7.8717599
4.7874498 0.41834801 7.9028301
4.7694402 0.29693401 7.8491702
4.7518802 0.33154199 7.8404102
4.7614298 0.34706801 7.87045
4.97294 0.484539 8.1339397
4.8073001 0.48430699 7.8782501
4.7903099 0.46128201 7.8669801
4.7635899 0.293749 7.9300399
4.9749799 0.48616701 8.1609898
4.7937598 0.41035199 7.8996301
4.8138399 0.44290999 7.9187198
4.7946701 0.39608401 7.9135098
4.7880702 0.35959601 7.9156899
4.81463 0.46002901 7.9107499
4.8002901 0.47374099 7.8833899
4.8036199 0.51684898 7.8673
4.77069 0.292521 7.9005399
4.7827201 0.33606699 7.9095702
4.82515 0.511917 7.8882799
4.9702101 0.63804299 7.9951401
4.73803 0.31193501 7.84373
4.80372 0.42679 7.9149799
4.8199501 0.52981502 7.8832698
4.75772 0.31593499 7.8718901
4.9711199 0.53008503 8.1666403
4.74687 0.33613399 7.86447
4.80234 0.37499899 7.9259701
4.8077998 0.44992101 7.9011202
4.75846 0.274266 7.8991199
4.8010502 0.426606 7.8372002
4.8021998 0.467132 7.8273501
4.7939801 0.474397 7.8478599
4.8227401 0.499787 7.8245301
4.80059 0.52835703 7.8286901
4.8083501 0.428653 7.8376002
4.8097701 0.49734399 7.8238401
4.9208899 0.103762 8.0522499
4.9026799 0.0429998 8.0534401
4.8119502 0.47232199 7.8291798
4.81741 0.50515997 7.8203902
4.92103 0.111193 8.0726004
4.9272199 0.102429 8.0545301
4.9893398 0.71056002 7.9042902
5.0058999 0.77238202 7.8701401
4.9970198 0.77568197 7.81741
4.9454498 0.45449299 8.0076199
4.80971 0.50500798 7.8181901
4.7726998 0.354929 7.8296499
4.9667401 0.49418801 8.0251598
4.9848199 0.52108997 8.0166101
4.9717498 0.55881798 8.0115604
4.95474 0.75920397 7.8308702
4.9432302 0.44629499 8.0128202
4.9534001 0.61879498 7.9801302
4.7788701 0.275583 7.9608202
4.7641602 0.32513699 7.8277302
4.7787299 0.375386 7.8301501
4.96244 0.493164 8.0058002
4.96768 0.503218 8.0141096
4.9587002 0.55519599 8.0123501
4.9594302 0.50937802 8.01402
4.9696999 0.60996401 8.0002804
4.9881301 0.72004801 7.9107499
4.7419 0.25277999 7.8769202
4.9118099 0.110763 8.0572395
4.9623098 0.455897 8.0045004
4.8066101 0.49060199 7.81814
4.8219199 0.52566397 7.81531
4.7651 0.33565 7.8285799
4.80018 0.46042201 7.82551
4.7236199 0.274003 7.8806801
4.9096899 0.097266696 8.0408297
4.9077802 0.097350702 8.0632296
4.9134498 0.098704897 8.0735302
4.8059301 0.48130301 7.8232698
4.7747998 0.36139601 7.83113
4.95822 0.45009401 8.0104198
4.9519501 0.45596901 8.0111599
4.9615502 0.50238502 8.0040197
4.7356901 0.29532599 7.94556
4.9069099 0.091110498 8.0670004
4.9141998 0.109071 8.0634098
4.9544201 0.76934701 7.7599502
4.9116302 0.10173 8.0602398
4.79778 0.49375701 7.7938499
4.7989302 0.49581301 7.7915401
4.8034501 0.40985799 7.8509998
4.79948 0.50407702 7.7873402
4.8006701 0.50097603 7.7890301
4.9513502 0.43307501 8.0062199
4.8010101 0.499513 7.7894902
5.00489 0.884808 7.5883698
4.98739 0.68856698 7.8167701
4.8171902 0.413634 7.8593602
4.80828 0.40458599 7.8807998
4.7998099 0.50261003 7.78862
4.7985702 0.49400401 7.79072
4.9687099 0.44908601 8.0085297
4.9981999 0.89034498 7.5966101
4.7982502 0.49500901 7.7898102
5.00317 0.894521 7.5852599
5.0110998 0.89064997 7.5763602
5.0057502 0.89270699 7.5838199
5.00594 0.88895601 7.5892701
4.8050599 0.50689101 7.78794
4.7992902 0.496943 7.7892199
5.00528 0.90159202 7.6972799
