# .PCD v0.7 - Point Cloud Data file format
VERSION 0.7
FIELDS x y z
SIZE 4 4 4
TYPE F F F
COUNT 1 1 1
WIDTH 240
HEIGHT 1
VIEWPOINT 0 0 0 1 0 0 0
POINTS 240
DATA ascii
3.2497599 0.91101599 7.2381401
3.3629301 0.94693601 7.28759
3.3550799 0.89582598 7.2722301
3.3647001 0.99738598 7.2781
3.5225201 0.803132 7.3980298
3.4433999 0.85145199 7.3809299
3.35427 0.90036899 7.3126402
3.44469 0.91544503 7.3787599
3.3544099 0.94049001 7.3111
3.3617899 0.947267 7.3130398
3.352 0.95702201 7.2996998
3.3830299 0.97737598 7.3166499
3.3864501 0.98122901 7.3182001
3.39644 1.00104 7.31671
3.40049 0.99979401 7.3194699
3.40165 1.0068901 7.3007002
3.3768101 1.04414 7.3037701
3.5459299 0.98216099 7.3955998
3.40413 1.0237499 7.31707
3.2722499 0.78880501 7.3017802
3.3032701 0.83404398 7.3045602
3.5204 0.84197998 7.4010801
3.3468699 0.93061799 7.3098898
3.3271201 0.95266902 7.2989898
3.3424599 0.96055502 7.3062601
3.3543899 0.97478497 7.3041601
3.5281999 0.9034 7.30336
3.3833201 0.990017 7.3000002
3.38429 1.00015 7.3004098
3.3900199 1.0019799 7.3150601
3.4117801 1.01846 7.3203101
3.41664 1.02723 7.3221102
3.4217401 0.99760902 7.30828
3.3554001 0.71335399 7.36025
3.2771699 0.76184499 7.2863402
3.3717599 0.96825898 7.3161302
3.3452799 0.93738401 7.3059702
3.5414701 0.89712101 7.3927398
3.34799 0.97103101 7.3058701
3.41921 0.95740497 7.3105001
3.42114 0.959198 7.3117099
3.41137 0.970285 7.3086901
3.4219799 1.0087399 7.31078
3.3959501 1.05525 7.31143
3.2567201 0.66338003 7.2895799
3.40604 0.98198497 7.3062801
3.46894 0.708269 7.3656602
3.4063799 0.99258798 7.30796
3.3334899 0.77148902 7.29738
3.4068799 1.01906 7.3074198
3.49891 0.80262899 7.26723
3.5053999 0.82624698 7.4022198
3.2606001 0.97731 7.27806
3.2785299 0.98245102 7.2829599
3.39797 0.943654 7.3058901
3.3747101 0.964342 7.29953
3.40238 1.02187 7.3187099
3.53492 0.98385298 7.3949599
3.35304 0.89860398 7.3112898
3.5129399 0.77648598 7.4275899
3.2522199 0.66402 7.28898
3.31706 0.78035301 7.2923698
3.33178 0.81294799 7.3108401
3.4210899 1.01425 7.3066001
3.53039 0.87473899 7.4077101
3.3143001 0.969666 7.2958298
3.4173701 0.971834 7.3084202
3.40131 0.99406898 7.30266
3.40784 1.0176899 7.3016601
3.5388801 0.96261799 7.39608
3.4288499 1.00052 7.3122902
3.41188 0.61487198 7.2663798
3.4268501 0.630144 7.2651701
3.39008 0.97533101 7.3066201
3.4222701 0.63619399 7.2769098
3.4067199 0.63524699 7.2735
3.31287 0.78573799 7.2916398
3.3412499 0.801709 7.3213501
3.3457601 0.85905498 7.3182802
3.44612 0.85578197 7.3723698
3.36993 0.93319702 7.3161602
3.3934 0.92969501 7.30374
3.35008 0.95096397 7.3141799
3.3492801 0.89905298 7.30721
3.3956299 0.93907702 7.30581
3.5309899 0.96093702 7.3976202
3.5322599 0.98267001 7.39327
3.51228 0.83763403 7.4009399
3.40452 1.01226 7.3013301
3.39516 0.90993702 7.3039498
3.27333 0.98308802 7.3203902
3.3559501 0.95222199 7.3164001
3.3773601 0.954934 7.3052602
3.37304 0.97565901 7.3048902
3.3849599 0.99207401 7.3044901
3.3745301 1.06946 7.3043199
3.41063 0.62624103 7.2625999
3.4774101 1.04351 7.3160601
3.4417 0.83885401 7.3801699
3.41046 0.890086 7.3049402
3.39555 0.906663 7.3045101
3.44438 0.91695303 7.3799701
3.3146501 0.90307099 7.2835498
3.3153601 0.897654 7.2816801
3.3633101 1.0405999 7.2934999
3.5927899 0.82779598 7.4000502
3.51963 0.96470398 7.2438998
3.51811 1.01332 7.38061
3.3636401 1.0257601 7.2947602
3.49683 1.02878 7.3881202
3.5389099 0.82826602 7.4036999
3.42469 0.95831001 7.31075
3.47997 0.982297 7.3612199
3.5355401 0.97254902 7.3886299
3.4558699 0.85617399 7.3795099
3.5379701 0.844284 7.4047298
3.3685 0.93077302 7.31599
3.5411999 0.83934897 7.40378
3.3944299 1.02492 7.31879
3.41765 1.02239 7.32232
3.36854 0.95255601 7.3159599
3.3899601 0.83452201 7.3229198
3.3078401 0.90603399 7.28019
3.48702 0.64709002 7.2814598
3.48562 0.992625 7.35463
3.5151501 0.98854399 7.3655701
3.3359699 0.81021899 7.31388
3.4816301 0.650204 7.28053
3.34712 0.65363199 7.3330898
3.4837601 0.99395299 7.3564501
3.4923 0.717448 7.2804198
3.4700301 0.72194302 7.2797198
3.4712701 0.75805098 7.2747598
3.4688201 0.76603597 7.2745299
3.4718499 0.836097 7.2750201
3.3828001 0.94340599 7.3147101
3.36836 0.95404702 7.2971601
3.3717899 0.980847 7.2992401
3.3679199 1.00962 7.3003802
3.4393201 0.99447 7.3182302
3.3764701 1.03874 7.2881899
3.46632 0.72628802 7.27949
3.55039 1.06074 7.3343601
3.3631401 1.02046 7.3021302
3.38502 0.920636 7.2975302
3.50613 0.735394 7.2908101
3.48298 0.74306202 7.2727799
3.5084 0.76699001 7.2953401
3.3341899 0.81450301 7.3225899
3.35269 0.94134903 7.3050599
3.3528399 0.94629502 7.3056202
3.3535299 0.968952 7.3060002
3.49632 1.02591 7.3681502
3.4844601 0.65288699 7.2879
3.4204299 1.01074 7.3174701
3.4604499 0.761729 7.2768898
3.54072 0.962632 7.3931398
3.4588499 0.83855999 7.3806701
3.42958 1.00301 7.3185802
3.4698801 0.75292802 7.2786398
3.49863 0.75997102 7.2912502
3.5248001 0.77445298 7.2895598
3.34323 0.82139599 7.32443
3.4574299 0.83694202 7.3656001
3.2695301 0.89025301 7.2825499
3.3471799 0.88445997 7.3070898
3.5246201 0.90966398 7.30445
3.4702499 0.72541898 7.28122
3.46807 0.84408599 7.3177099
3.52281 0.895356 7.38379
3.5274 0.73295498 7.29601
3.4588399 0.66532397 7.2845898
3.4342201 1.00104 7.31844
3.42365 0.99051398 7.3297701
3.4703 0.71945298 7.2835398
3.4353299 0.99779803 7.3193698
3.54392 0.769081 7.2841702
3.5217199 0.73318398 7.3020902
3.47965 0.74513203 7.2771001
3.47419 0.75435299 7.2781301
3.3903501 1.05723 7.3062601
3.5457201 0.87481898 7.4042201
3.3401799 0.84113503 7.3272901
3.3441401 0.97685301 7.3174701
3.3650899 0.99708003 7.3127899
3.5171599 0.85972899 7.4000902
3.5383899 0.98201299 7.3898802
3.4356301 0.99940503 7.3194599
3.5565701 0.73308498 7.2884998
3.51581 0.73651099 7.2774401
3.3401301 0.828969 7.3250599
3.3429999 0.85167998 7.3080902
3.3689001 0.84954298 7.3248501
3.3771901 0.916785 7.2945299
3.5309899 0.71422398 7.27074
3.5000401 1.05102 7.3716698
3.5316601 0.73379201 7.2982502
3.4549301 0.67118698 7.2866001
3.26719 0.78845698 7.28793
3.3715 1.01926 7.3460102
3.5195301 0.95758301 7.4026699
3.54163 0.96116 7.3937302
3.4705 0.86288202 7.3699198
3.4244001 1.0187401 7.32129
3.4010401 1.0347199 7.3168802
3.5234599 0.91985101 7.4004598
3.53967 0.98042202 7.3912702
3.3606601 0.93953598 7.2968202
3.3617001 0.95831102 7.2966099
3.3620701 0.97315502 7.2947602
3.3624799 1.00975 7.2909999
3.3647599 1.03166 7.2945199
3.3747399 1.03031 7.29072
3.4514501 0.67100799 7.2867298
3.4954 0.71777701 7.28158
3.4814401 0.98203599 7.3617301
3.49277 0.998133 7.3688998
3.35215 0.96314001 7.3080602
3.3850501 0.94683897 7.3028202
3.5239799 0.91951197 7.2930598
3.3157599 0.90358001 7.2869802
3.34112 0.82115501 7.3150501
3.3752799 1.0069799 7.2985501
3.53321 0.98802102 7.3954501
3.35078 0.79282802 7.3284502
3.5153899 0.97037399 7.3997598
3.3580899 0.98355103 7.2944598
3.36412 0.821527 7.3054399
3.5559101 0.81244498 7.3927202
3.5395899 0.821576 7.4050598
3.2664599 0.81771201 7.3552198
3.4096601 1.0188299 7.3168302
3.3922999 1.04023 7.3145199
3.48564 0.94260299 7.3688002
3.3392 0.82583302 7.3115802
3.4822099 0.98044598 7.3653202
3.49494 0.98506701 7.3526702
3.4833701 0.97420698 7.3046298
3.3622701 0.95274401 7.2972898
3.35941 0.971753 7.2982001
