# .PCD v0.7 - Point Cloud Data file format
VERSION 0.7
FIELDS x y z
SIZE 4 4 4
TYPE F F F
COUNT 1 1 1
WIDTH 127
HEIGHT 1
VIEWPOINT 0 0 0 1 0 0 0
POINTS 127
DATA ascii
1.6235501 -0.96545798 2.24265
1.74596 -0.94076401 2.21228
1.81884 -1.11981 1.6013
1.79693 -1.09181 1.87766
1.7080899 -0.99951702 2.14446
1.8174 -1.05176 1.94567
1.7894599 -1.06121 1.77707
1.6485 -0.99658 2.15856
1.67941 -1.04527 1.65714
1.80643 -1.05539 2.0120201
1.81124 -1.07302 1.77404
1.65836 -0.997253 2.1531601
1.80951 -1.0451601 2.0386901
1.80393 -1.03493 2.2117
1.8368 -1.02118 2.25983
1.68819 -0.98607898 2.0277901
1.6875401 -1.02881 1.68191
1.62954 -0.98284698 2.1915801
1.67651 -1.02948 1.6353199
1.65898 -0.99798298 2.1717999
1.74631 -0.99241799 1.99261
1.67968 -0.99262202 2.13677
1.72089 -0.99994498 1.97593
1.83658 -1.0471801 1.99287
1.79941 -1.02779 1.6296099
1.68989 -0.98895699 2.1596601
1.69582 -0.97645301 2.26581
1.72621 -0.99840599 2.00017
1.66057 -0.98635602 2.18541
1.69319 -1.0029401 2.08799
1.6912 -0.99646097 2.15413
1.69928 -0.99941999 2.0299499
1.70039 -1.00465 2.06883
1.69313 -0.98533797 2.29688
1.70094 -0.99309301 2.1082499
1.69181 -0.98602903 2.2100201
1.69938 -1.00499 2.0659101
1.6871099 -1.04565 1.6612999
1.70939 -0.98965901 2.12114
1.7191499 -0.97922099 2.2058101
1.69762 -1.04224 1.6724
1.6989501 -1.0059299 2.0857
1.70629 -0.99139303 2.1605401
1.70512 -0.99427903 2.12358
1.69964 -1.0143 2.01841
1.70724 -1.00855 2.0632701
1.70355 -1.00667 2.1054299
1.70497 -1.00205 2.1624701
1.70722 -0.99959701 2.09162
1.70986 -1.0383199 1.64396
1.72656 -0.99671602 2.0457399
1.7049201 -0.994699 2.1693201
1.71992 -0.98617798 2.2204299
1.70444 -0.99949098 2.10536
1.70021 -1.04803 1.62745
1.72158 -1.00543 2.0090799
1.7112499 -0.98678398 2.1809599
1.70516 -1.0045 2.07986
1.7167 -0.98607898 2.16855
1.71483 -0.990394 2.2121699
1.71538 -1.00459 2.0489299
1.7140501 -0.99911797 2.09778
1.7142 -0.99534398 2.12819
1.7219599 -1.00916 1.9440399
1.71742 -0.98948699 2.22243
1.71516 -1.00081 2.10148
1.71637 -0.99727398 2.12499
1.7254 -0.98896402 2.1610601
1.73044 -1.00416 1.98654
1.72093 -1.00211 2.0318301
1.73456 -0.99171001 2.0703001
1.7341501 -1.00411 1.93309
1.71398 -1.0126899 2.00225
1.72101 -1.01594 1.9272
1.7358 -0.99684399 1.9784
1.72313 -0.987688 2.2073801
1.7398601 -0.98287302 2.1605101
1.72276 -1.00341 2.0392001
1.7364 -0.99382502 2.06513
1.73506 -0.99264801 2.1099899
1.72452 -0.98638099 2.21912
1.72191 -1.0060101 2.0513401
1.73814 -0.99293 2.08775
1.72153 -1.0068001 2.0174899
1.7412601 -0.98474902 2.0989399
1.7387201 -0.98992503 2.10409
1.73848 -0.99241602 2.0603099
1.73498 -0.98430198 2.2047
1.73983 -0.98526901 2.1579101
1.71912 -1.00982 2.00562
1.81668 -0.993195 2.2660201
1.74203 -0.98108798 2.19382
1.7434 -0.98490298 2.14873
1.74007 -0.98898703 2.1122501
1.7479 -0.98831803 2.09832
1.73543 -0.99844199 2.0269899
1.73628 -1.0012 2.0111799
1.6932 -0.99712199 2.1405399
1.74464 -0.98568398 2.0924599
1.73633 -1.0001301 2.0320599
1.73954 -0.99332798 2.03719
1.73856 -0.99931097 2.0139501
1.69315 -1.00413 2.1166401
1.70395 -1.00398 2.08057
1.70842 -1.0082901 2.0239501
1.72957 -1.01981 1.66934
1.6982501 -0.99823302 2.0413899
1.69017 -1.0402 1.67496
1.6993099 -0.98766297 2.1356499
1.70249 -0.97940499 2.2811301
1.69989 -0.98932701 2.1961701
1.73385 -1.02345 1.66265
1.74101 -0.98195201 2.19699
1.7513 -0.97981399 2.1660399
1.74406 -0.98543501 2.13693
1.74483 -0.997657 2.0407901
1.74163 -0.99287802 2.06933
1.7429301 -0.98689401 2.0742099
1.73736 -1.00148 1.99876
1.74295 -0.990125 2.09868
1.73718 -0.99725002 2.03879
1.80679 -1.01801 2.2737899
1.78405 -1.07877 1.51436
1.74591 -1.00437 2.0795801
1.78198 -1.08376 1.50939
1.80393 -1.02344 2.1942599
1.75413 -1.00193 2.1362901
