# .PCD v0.7 - Point Cloud Data file format
VERSION 0.7
FIELDS x y z
SIZE 4 4 4
TYPE F F F
COUNT 1 1 1
WIDTH 256
HEIGHT 1
VIEWPOINT 0 0 0 1 0 0 0
POINTS 256
DATA ascii
7.0236502 -0.20423 5.22682
7.0604901 -0.18164 5.2437701
7.0188999 -0.20522501 5.2319398
7.0690899 -0.188051 5.2467299
6.99505 -0.175 5.2107501
6.9652901 -0.16574199 5.2093902
7.0313902 -0.192504 5.2119799
6.8922501 -0.13663 5.2073202
7.0942798 -0.231693 5.2288198
7.0689998 -0.20665599 5.20964
6.8789802 -0.132255 5.2076402
7.0679798 -0.202595 5.20329
7.0350699 -0.198707 5.2161899
7.0275102 -0.191854 5.2108498
7.0587201 -0.169485 5.2282901
7.0499201 -0.166768 5.2283201
7.0167699 -0.153016 5.2258501
6.9222002 -0.14861301 5.2084699
6.90663 -0.14484701 5.2092299
6.8880601 -0.136085 5.2066498
6.86623 -0.126109 5.2056599
7.0223999 -0.191825 5.2139001
7.0178099 -0.191819 5.2144299
6.9187598 -0.148341 5.2077098
6.9122901 -0.14614999 5.2086601
6.8660002 -0.125057 5.20504
7.03019 -0.197145 5.2133498
6.9050798 -0.14479101 5.21141
6.8666101 -0.127708 5.2076001
6.94311 -0.16145 5.2118201
6.9145098 -0.149028 5.2107902
6.9173298 -0.15048601 5.21134
6.8968 -0.14185899 5.2109599
6.8930998 -0.133375 5.1963701
7.0693698 -0.219924 5.2225399
7.0121598 -0.190525 5.21843
7.0443201 -0.17534301 5.23382
6.9132199 -0.148784 5.2107401
7.0482101 -0.177239 5.2372098
7.09307 -0.234467 5.23312
7.0690598 -0.17918301 5.23316
7.0213799 -0.194822 5.2163901
7.0117402 -0.192121 5.2135601
7.0452399 -0.210795 5.2239699
7.0378499 -0.20552 5.2203002
7.0349302 -0.203545 5.2203002
7.0080199 -0.18818501 5.2132602
7.0009198 -0.19115099 5.2193999
7.1792202 -0.293998 5.25314
7.0647898 -0.22033601 5.2253098
7.0616798 -0.218485 5.2252202
7.0152798 -0.195729 5.2198601
7.0556798 -0.21472999 5.2248201
7.0007801 -0.190006 5.2191901
7.03582 -0.203684 5.2221799
7.03863 -0.207276 5.2216401
7.1440201 -0.26376101 5.2394199
6.9958701 -0.184844 5.2135401
6.9568601 -0.16724899 5.2096901
7.00805 -0.19006801 5.21416
6.9698601 -0.17301799 5.2102799
6.9522099 -0.165093 5.2098699
6.9499202 -0.164023 5.20995
6.93256 -0.156579 5.2087402
6.9267101 -0.152566 5.2072802
6.9187698 -0.149901 5.2167301
7.0496802 -0.210123 5.2189598
7.0689301 -0.218189 5.22083
7.0400701 -0.204694 5.2166901
6.9939799 -0.183461 5.21176
6.9760599 -0.173942 5.2095098
6.9584599 -0.16623899 5.20927
6.93607 -0.15511601 5.2048101
6.9251299 -0.15011699 5.2044601
7.0531201 -0.21044201 5.21698
6.9113898 -0.1464 5.2095499
7.0603499 -0.21284001 5.2161899
6.9622102 -0.167069 5.2096901
6.9572101 -0.167724 5.2076998
6.9481301 -0.16131 5.2073302
6.94139 -0.15900999 5.20544
6.9435201 -0.157942 5.2082601
7.0460701 -0.205788 5.21492
7.03297 -0.198782 5.2116199
7.0259199 -0.19727001 5.21311
7.0658498 -0.190621 5.2444501
6.9518199 -0.164809 5.2055402
6.9454198 -0.15939599 5.2049599
6.9359398 -0.157133 5.20433
6.9212699 -0.149037 5.2020998
7.1225901 -0.243835 5.22755
6.9342999 -0.153915 5.2039499
6.9552202 -0.164105 5.2094698
7.1312699 -0.25055 5.2294898
6.9605799 -0.16628601 5.2069602
6.96738 -0.17068499 5.2087498
6.9698801 -0.171821 5.2088799
6.9774499 -0.17536999 5.2093801
7.1536198 -0.264388 5.2348599
7.1359 -0.26267001 5.2390699
7.1287498 -0.261608 5.2389598
7.11272 -0.240364 5.2238302
7.0246902 -0.193818 5.2100401
7.0195899 -0.195297 5.2133498
6.94594 -0.16281401 5.2059898
6.9744701 -0.175044 5.2101898
6.9641299 -0.17070299 5.2091799
6.9600501 -0.170101 5.2087598
6.9559302 -0.165519 5.2077398
6.94173 -0.158926 5.2056699
6.9461002 -0.163224 5.2121301
6.9524999 -0.163055 5.2075
7.1466098 -0.26635501 5.2360401
7.0669498 -0.190667 5.2438698
6.9263201 -0.15740401 5.2098398
7.1188698 -0.242864 5.2244101
7.0562601 -0.20618901 5.2104301
7.0535798 -0.212109 5.2223001
7.0269799 -0.18202899 5.1995201
6.9754701 -0.16946401 5.2038202
6.9556398 -0.166457 5.2135
6.9493098 -0.165556 5.2088799
6.96523 -0.17168599 5.2101698
6.9689498 -0.174336 5.2105098
7.0348601 -0.203841 5.2210498
7.1803398 -0.29589701 5.25597
7.1803198 -0.29727399 5.2554898
7.1034002 -0.234539 5.2203898
6.8403101 -0.096746497 5.1804199
7.1210299 -0.24469 5.2274098
7.0693302 -0.224764 5.2238998
6.8441901 -0.098019503 5.1816401
7.03825 -0.206953 5.21766
7.0051198 -0.21467599 5.23492
6.9598298 -0.169727 5.21071
6.9509602 -0.168851 5.21245
6.9401102 -0.165094 5.2120199
6.9388399 -0.162157 5.2070799
6.9917102 -0.13818701 5.2192798
6.9058299 -0.14133701 5.2017899
6.8954101 -0.13354699 5.1973701
6.8909302 -0.128718 5.1940699
6.8912101 -0.12984601 5.1985898
6.8768101 -0.123613 5.1967201
6.8700299 -0.114657 5.1890101
6.8639898 -0.11584 5.1929498
6.8585 -0.113667 5.19243
6.85502 -0.107961 5.1880102
6.8513699 -0.108719 5.1897502
6.9284601 -0.15376499 5.2058702
6.9485698 -0.16604801 5.2104802
7.00388 -0.20119099 5.2237802
7.0985799 -0.23023599 5.2186298
7.1129599 -0.239453 5.2228298
7.07338 -0.218775 5.21738
7.0583401 -0.21538401 5.21737
7.0415201 -0.205925 5.2152901
7.0385098 -0.206193 5.2149501
7.0029702 -0.211234 5.2357202
6.9973202 -0.204409 5.2309699
6.94698 -0.17134801 5.2124701
6.9363699 -0.165564 5.2144499
6.91575 -0.153155 5.2090602
6.9130101 -0.15273499 5.2108498
6.9075799 -0.15097199 5.2095499
6.8802099 -0.13429099 5.2034798
6.8782201 -0.130907 5.20087
6.8713102 -0.13085701 5.2042398
6.8624701 -0.12525301 5.2016401
6.86166 -0.121689 5.2022099
6.85007 -0.11934 5.1998501
6.84236 -0.112847 5.1960402
6.8543801 -0.121447 5.2017498
6.8582501 -0.120266 5.1957002
6.9250398 -0.160319 5.2129898
6.9314399 -0.16503701 5.2154899
7.0398798 -0.20528699 5.2183099
7.0683098 -0.220313 5.2188802
7.0923901 -0.226726 5.21768
7.1009998 -0.232397 5.2186198
7.06743 -0.216306 5.2209401
7.05088 -0.210576 5.2172799
7.0286598 -0.20689601 5.2210798
7.0485001 -0.181274 5.2408099
6.9200201 -0.17463 5.2253399
6.9046302 -0.162705 5.2243299
6.8924699 -0.14564499 5.21134
6.8794398 -0.147917 5.2178602
6.8678799 -0.134901 5.2073002
6.8614898 -0.13498899 5.2122302
7.04287 -0.179133 5.2402601
6.8404999 -0.118843 5.2030001
6.8449702 -0.125269 5.2079301
6.9424801 -0.164139 5.21034
6.8263798 -0.16236299 5.2491298
6.8631001 -0.18812101 5.2644701
6.86305 -0.175282 5.2505202
6.8659301 -0.15927 5.2322998
6.8956599 -0.156196 5.22018
7.0581398 -0.19574299 5.1974702
7.0189199 -0.126946 5.1965098
6.9105802 -0.13034301 5.1874399
6.8776498 -0.114655 5.1844401
7.1051402 -0.249649 5.2355399
7.0128102 -0.23553801 5.2614899
6.9899001 -0.123593 5.2020798
7.0004301 -0.108159 5.1854
6.88482 -0.120928 5.1880202
6.8656001 -0.108774 5.1835999
6.8565798 -0.107751 5.1855898
6.85148 -0.104631 5.1840301
7.0952501 -0.24061701 5.2295399
7.0378699 -0.199361 5.21311
6.9077201 -0.14180499 5.2040601
6.8644199 -0.115033 5.1911201
6.8779202 -0.119134 5.18927
6.87465 -0.114695 5.1855502
6.8769598 -0.13122199 5.2044401
7.0587902 -0.214553 5.2204599
7.1090498 -0.239351 5.2234101
7.0088 -0.190061 5.2116799
7.0701098 -0.19154599 5.2437401
6.9468699 -0.157767 5.2058201
6.9151702 -0.144409 5.2025099
6.9659801 -0.124479 5.21559
6.8674402 -0.122915 5.1989398
7.1200199 -0.244049 5.2252202
7.0913601 -0.227929 5.2190199
6.8513799 -0.110204 5.1914301
7.0666499 -0.188998 5.2428699
7.0392399 -0.21545599 5.2262802
7.0485401 -0.175919 5.23768
7.0010099 -0.188584 5.21842
7.0581498 -0.176422 5.2304802
6.91958 -0.152005 5.2107902
7.0373402 -0.204566 5.2200899
7.0461798 -0.211955 5.2262802
7.03795 -0.206425 5.2228699
7.07587 -0.186886 5.23663
7.04181 -0.20931301 5.2249699
7.01998 -0.197962 5.2154698
6.95296 -0.115167 5.2135501
7.1006598 -0.234101 5.22193
7.0386801 -0.20501199 5.21281
7.0367498 -0.202382 5.21697
7.0098 -0.190006 5.2113199
6.9956398 -0.18237101 5.20927
6.9445901 -0.172162 5.2139802
6.85498 -0.108018 5.1910501
7.0991802 -0.235071 5.2220302
7.0465298 -0.178874 5.2404299
7.00455 -0.145619 5.2230701
7.1157198 -0.23971701 5.22264
7.03548 -0.204403 5.2186999
7.0680299 -0.21709999 5.2186499
6.9120998 -0.140527 5.1989298
