# .PCD v0.7 - Point Cloud Data file format
VERSION 0.7
FIELDS x y z
SIZE 4 4 4
TYPE F F F
COUNT 1 1 1
WIDTH 65
HEIGHT 1
VIEWPOINT 0 0 0 1 0 0 0
POINTS 65
DATA ascii
3.0146599 0.40994099 2.09781
2.97245 0.35931599 2.08829
3.00157 0.40881401 2.08951
2.9537799 0.350979 2.0850999
2.9649 0.39192101 2.08254
2.96225 0.39705399 2.08672
3.0073099 0.39627701 2.06971
2.96649 0.432587 2.0848801
2.9688001 0.3698 2.09852
2.9785399 0.33950999 2.08058
2.9602301 0.32782599 2.10659
2.9849601 0.41161501 2.0748601
2.9649501 0.417936 2.0971301
2.9760699 0.41495901 2.0820401
2.9653299 0.39231601 2.0855501
2.9515901 0.42360699 2.06809
2.9593501 0.38845301 2.0691299
2.9695699 0.40008 2.09671
2.9458399 0.32527101 2.0747099
2.9500699 0.35701799 2.0741301
2.96823 0.31769601 2.0818999
2.9883399 0.36927399 2.07623
2.9451799 0.33388799 2.1019199
2.95467 0.36079401 2.10039
2.98879 0.38606501 2.0794899
2.9879799 0.36370701 2.07727
2.96295 0.38793799 2.0987899
2.96384 0.41869 2.0947299
2.9541299 0.32061499 2.1017101
2.9937999 0.386545 2.0768299
2.94927 0.36401901 2.0949299
2.9827399 0.304162 2.0851099
2.9707301 0.27422699 2.08658
2.9812 0.34835699 2.0792401
2.9547601 0.34244901 2.0989001
2.9581001 0.37686601 2.0959599
2.9865601 0.37098101 2.0810499
2.9636199 0.423334 2.0922
2.9505899 0.31785101 2.10062
2.98808 0.374244 2.0810599
2.97981 0.29949901 2.0871799
2.9750299 0.280476 2.08812
2.95893 0.34993699 2.09883
2.96772 0.34126201 2.0803499
2.97364 0.31598899 2.07939
2.9799199 0.38302299 2.07148
2.9574599 0.39714 2.0933499
2.98136 0.366532 2.07616
2.95333 0.32281899 2.09952
2.94399 0.36818099 2.09251
2.96948 0.28873199 2.08426
2.97419 0.31857499 2.0825801
2.93997 0.349655 2.08284
2.98119 0.409217 2.0766499
2.9679301 0.34319201 2.0812299
2.9810801 0.428619 2.0757201
2.9644699 0.30922899 2.0845001
2.9707 0.36072099 2.0781
2.95682 0.38993701 2.09707
2.9927299 0.38692901 2.0817699
2.95858 0.42331499 2.0937901
2.97931 0.36063799 2.08125
2.9777 0.332234 2.0840299
2.9693999 0.30924401 2.08446
2.96685 0.25594801 2.0897901
