# .PCD v0.7 - Point Cloud Data file format
VERSION 0.7
FIELDS x y z
SIZE 4 4 4
TYPE F F F
COUNT 1 1 1
WIDTH 112
HEIGHT 1
VIEWPOINT 0 0 0 1 0 0 0
POINTS 112
DATA ascii
-2.6357999 -0.44666201 3.15838
-2.66872 -0.351735 3.1947999
-2.61536 -0.40259799 3.1570301
-2.6306601 -0.44423601 3.1538
-2.63747 -0.34998599 3.1415901
-2.6343999 -0.427544 3.1399
-2.6371701 -0.345485 3.1533
-2.65852 -0.35683301 3.13552
-2.6400399 -0.34782901 3.13025
-2.6415999 -0.39205399 3.1371901
-2.6357901 -0.381841 3.14288
-2.63871 -0.35760501 3.1485801
-2.6382699 -0.349691 3.1477001
-2.6501901 -0.35408899 3.1342399
-2.6368301 -0.38074499 3.14978
-2.59882 -0.40831399 3.15552
-2.6024499 -0.40748399 3.1645
-2.63047 -0.45549199 3.16345
-2.6198399 -0.45377401 3.15943
-2.6472099 -0.35636601 3.15832
-2.6377499 -0.354873 3.1572499
-2.59395 -0.41171199 3.16745
-2.6275899 -0.40449199 3.1728401
-2.63592 -0.355746 3.1644299
-2.62467 -0.44552699 3.16342
-2.61654 -0.402098 3.15413
-2.6087201 -0.40074301 3.1547
-2.6512899 -0.35823801 3.1575601
-2.5952699 -0.40892699 3.16415
-2.61169 -0.40323001 3.1545899
-2.6671901 -0.40482199 3.1517
-2.66996 -0.35543999 3.15434
-2.64696 -0.38627201 3.1554201
-2.6475999 -0.44542301 3.1607101
-2.6017699 -0.42045599 3.1602001
-2.64415 -0.377646 3.15522
-2.6459401 -0.36961201 3.1554501
-2.64518 -0.38440099 3.155
-2.64606 -0.36627999 3.14799
-2.64604 -0.351569 3.15007
-2.6500299 -0.38109899 3.14937
-2.62552 -0.43259501 3.14501
-2.6606901 -0.43411601 3.1559601
-2.6142199 -0.12668499 3.1061499
-2.6296899 -0.386572 3.15797
-2.6450601 -0.41648099 3.15943
-2.62062 -0.43619099 3.1532099
-2.61496 -0.43024501 3.15451
-2.59761 -0.40034899 3.1542599
-2.6452301 -0.439446 3.1544499
-2.6412699 -0.343106 3.15364
-2.6528299 -0.42347601 3.15151
-2.6298599 -0.446942 3.1559701
-2.64135 -0.36095101 3.1545
-2.6177001 -0.43627301 3.1570101
-2.6391499 -0.35798001 3.1563499
-2.6412101 -0.442375 3.1635301
-2.6491101 -0.433191 3.16026
-2.5974901 -0.414386 3.15712
-2.6354101 -0.45174199 3.1571901
-2.6645 -0.383937 3.1127501
-2.65329 -0.33476499 3.1535399
-2.6431401 -0.41501901 3.15503
-2.6377101 -0.33864099 3.1542599
-2.6473899 -0.34342101 3.15343
-2.6124699 -0.436813 3.1454699
-2.59762 -0.39723101 3.15483
-2.6504099 -0.43535 3.1485
-2.62327 -0.439603 3.1456101
-2.5897 -0.40417799 3.15294
-2.6356399 -0.44113001 3.1525199
-2.66254 -0.35132 3.15676
-2.6440301 -0.43731999 3.1574299
-2.5894499 -0.409318 3.1579001
-2.60325 -0.40060699 3.1588199
-2.64977 -0.34389001 3.1558001
-2.62866 -0.345761 3.15257
-2.65008 -0.435644 3.15451
-2.6202199 -0.43736801 3.1450601
-2.6413901 -0.41698399 3.15431
-2.6261201 -0.35041401 3.1482601
-2.6647 -0.3524 3.1512301
-2.6370001 -0.447768 3.1506701
-2.63644 -0.341499 3.1484599
-2.6430199 -0.34095699 3.15116
-2.59025 -0.40942699 3.1540599
-2.59483 -0.39545301 3.15272
-2.63782 -0.40382299 3.1520901
-2.6112199 -0.39996701 3.15151
-2.63731 -0.356509 3.15064
-2.64201 -0.438088 3.1533501
-2.66166 -0.34872699 3.14921
-2.6141601 -0.43838999 3.14921
-2.6345999 -0.38304299 3.14818
-2.6308801 -0.35205099 3.14695
-2.65871 -0.34178299 3.1542799
-2.60782 -0.40215001 3.1587901
-2.6373601 -0.446899 3.1612
-2.65659 -0.423621 3.16308
-2.6682 -0.35915399 3.1544199
-2.65135 -0.40663999 3.16014
-2.63732 -0.362259 3.15503
-2.64556 -0.38088599 3.1548901
-2.6491001 -0.439504 3.15815
-2.60234 -0.40608999 3.15763
-2.6590099 -0.34480301 3.1472399
-2.6736701 -0.394427 3.1542399
-2.6480501 -0.38260299 3.15188
-2.5912499 -0.40634599 3.15904
-2.59831 -0.40690699 3.1561601
-2.6521101 -0.3441 3.1489699
-2.5920401 -0.398707 3.1587
