# .PCD v0.7 - Point Cloud Data file format
VERSION 0.7
FIELDS x y z
SIZE 4 4 4
TYPE F F F
COUNT 1 1 1
WIDTH 159
HEIGHT 1
VIEWPOINT 0 0 0 1 0 0 0
POINTS 159
DATA ascii
1.82294 -0.44361201 6.2635398
1.81565 -0.43998301 6.3138099
1.8488899 -0.43054 6.3302102
1.80769 -0.43679601 6.3867202
1.80322 -0.431072 6.4003901
1.81238 -0.43813899 6.3491402
1.80144 -0.43409401 6.4084101
1.86948 -0.43025401 6.31213
1.85106 -0.429396 6.3689699
1.84957 -0.42968199 6.3478699
1.90071 -0.431079 6.2129402
1.90161 -0.428574 6.24298
1.88914 -0.429728 6.2652001
1.87927 -0.443425 6.12992
1.8825999 -0.43748599 6.1810398
1.86945 -0.44211599 6.1956601
1.8780299 -0.432722 6.2399201
1.86543 -0.432181 6.2992601
1.86387 -0.43142799 6.3186102
1.86455 -0.428038 6.3514199
1.88715 -0.429941 6.2525401
1.85728 -0.43830901 5.97473
1.8568701 -0.43190601 6.3296099
1.83833 -0.452209 6.1983099
1.85058 -0.432641 6.3620501
1.86692 -0.445131 5.9737301
1.84024 -0.45121101 6.1646299
1.84308 -0.44626901 6.2003899
1.8595099 -0.42962599 6.3183198
1.82827 -0.43446699 6.36028
1.8397 -0.427726 6.38941
1.8399 -0.445526 6.2364302
1.8609101 -0.445741 5.97789
1.82964 -0.44858399 6.1996698
1.8415999 -0.439459 6.2841401
1.84039 -0.44721699 6.20926
1.8425 -0.453677 6.1237602
1.8434401 -0.44823799 6.1729898
1.83215 -0.43655401 6.3111
1.83865 -0.42463699 6.3867202
1.85396 -0.436822 5.97054
1.84104 -0.44935501 6.20329
1.83332 -0.431566 6.3722801
1.84137 -0.44358599 6.1967001
1.83846 -0.453852 6.1505299
1.83453 -0.446134 6.2420602
1.84935 -0.440373 6.26792
1.8353699 -0.432803 6.35778
1.8405 -0.448053 6.1434898
1.84326 -0.424858 6.34585
1.85014 -0.44846401 5.9808898
1.85298 -0.43818501 5.9693799
1.831 -0.42496499 6.25668
1.84255 -0.44465801 6.1921601
1.83676 -0.436362 6.3070402
1.84742 -0.454189 5.9778299
1.8401099 -0.44664401 6.1533599
1.83815 -0.445191 6.2415299
1.84032 -0.441497 6.2614498
1.84753 -0.443454 5.9742799
1.83621 -0.45927599 6.1195302
1.835 -0.45664799 6.1329899
1.8372999 -0.45120499 6.1778898
1.8410701 -0.44791701 6.2048898
1.83366 -0.44037801 6.3169398
1.83822 -0.44343901 6.2508101
1.8402801 -0.43283901 6.3007498
1.85785 -0.44309101 5.9805002
1.84038 -0.45313001 6.1167498
1.83757 -0.446062 6.1828198
1.8372 -0.431853 6.34763
1.83881 -0.42720401 6.40589
1.84566 -0.43128201 6.3755298
1.83462 -0.435379 6.28826
1.84605 -0.435269 6.31814
1.84118 -0.44202501 6.2530198
1.84135 -0.45053801 6.1442399
1.8455 -0.444866 6.2239199
1.83961 -0.44008899 6.2206602
1.84302 -0.44632801 5.9593401
1.8394099 -0.44929099 6.17101
1.83699 -0.45093 6.2030301
1.8405 -0.434715 6.3049798
1.83811 -0.43172199 6.3516002
1.8379 -0.42782301 6.4049401
1.84356 -0.441181 6.2427902
1.83953 -0.443001 6.26403
1.8375 -0.43220901 6.3735099
1.84059 -0.448006 6.1448698
1.83755 -0.44992101 6.2104702
1.83453 -0.43950701 6.31493
1.83553 -0.43492901 6.3468199
1.83856 -0.44905099 6.16921
1.83761 -0.44999301 6.2083001
1.8401901 -0.43815601 6.2888799
1.8358999 -0.43983099 6.30825
1.8411 -0.43391499 6.2951398
1.83856 -0.44625199 6.2483602
1.84464 -0.44481501 5.9591398
1.83491 -0.45390099 6.1436901
1.8369 -0.44995201 6.1759901
1.83697 -0.43544799 6.3454599
1.85234 -0.42938 6.38834
1.84241 -0.429784 6.3410001
1.8414299 -0.45003599 6.1389098
1.83684 -0.45174101 6.1998
1.84307 -0.44591001 6.2126198
1.8446701 -0.441627 6.2618499
1.8419501 -0.430875 6.3771601
1.837 -0.45483601 6.1420498
1.8413399 -0.43538699 6.3346901
1.84226 -0.45201099 6.1294999
1.84096 -0.449797 6.16605
1.83874 -0.450636 6.1928902
1.83991 -0.44999501 6.20959
1.8425699 -0.44620401 6.1849999
1.8409899 -0.43696499 6.2810702
1.84102 -0.432547 6.3470101
1.84026 -0.43239599 6.3708401
1.84402 -0.42775401 6.3565998
1.84302 -0.445463 6.2428699
1.83874 -0.44821501 6.2349501
1.84551 -0.44227701 6.2239499
1.8386199 -0.44082201 6.2938399
1.8453 -0.42921001 6.3323398
1.84005 -0.43741199 6.3250999
1.83944 -0.43476701 6.3685598
1.84369 -0.429851 6.3555899
1.84168 -0.43068701 6.3772502
1.83117 -0.458152 6.1215301
1.83573 -0.45373201 6.1402998
1.84268 -0.44512299 6.2560101
1.83478 -0.44002599 6.2782402
1.83878 -0.441174 6.2369099
1.84016 -0.445014 6.2374401
1.83903 -0.436196 6.3220201
1.83461 -0.43722999 6.31389
1.84042 -0.42924699 6.3854399
1.83578 -0.45003301 6.1930299
1.84201 -0.450858 6.1677699
1.83688 -0.44183299 6.2625599
1.8356 -0.444868 6.2393498
1.842 -0.43626499 6.3221698
1.83313 -0.43792099 6.32058
1.83801 -0.42713299 6.3896298
1.84381 -0.43618399 6.3038602
1.84471 -0.43089399 6.3755598
1.84947 -0.42581099 6.37356
1.8396 -0.45225099 6.2045498
1.8401 -0.44865701 6.1774101
1.8344899 -0.45706901 6.1203399
1.83761 -0.45292199 6.17377
1.84034 -0.44860101 6.1994801
1.8408999 -0.44839001 6.2089601
1.84065 -0.445115 6.2412
1.84139 -0.441268 6.27106
1.8417701 -0.43357199 6.3241501
1.83841 -0.43457201 6.3625998
1.8400199 -0.42987001 6.38515
