# .PCD v0.7 - Point Cloud Data file format
VERSION 0.7
FIELDS x y z
SIZE 4 4 4
TYPE F F F
COUNT 1 1 1
WIDTH 59
HEIGHT 1
VIEWPOINT 0 0 0 1 0 0 0
POINTS 59
DATA ascii
0.64812899 -0.023748901 -0.50433999
0.62680298 -0.0211902 -0.494158
0.598005 -0.0180579 -0.48959401
0.515104 -0.0103838 -0.51462901
0.50139302 0.038114302 -0.39779899
0.70130301 -0.028926499 -0.52785999
0.698129 -0.0211247 -0.44175601
0.64066899 -0.013476 -0.43192601
0.65628397 0.0154499 -0.401961
0.51796699 -0.0112823 -0.51849902
0.65352499 0.0149737 -0.39764899
0.62180901 -0.0173808 -0.52344
0.551458 -0.0064022401 -0.48192501
0.50621402 -0.0034036101 -0.51911199
0.60363102 -0.0153897 -0.49408799
0.62295699 -0.021888699 -0.54609501
0.57498002 -0.0132015 -0.53873301
0.67536598 0.016834199 -0.38363799
0.66677302 0.0173987 -0.403938
0.584364 -0.0108412 -0.54434001
0.49821499 -0.0085587697 -0.56841397
0.417988 0.0484014 -0.511365
0.56966102 -0.01391 -0.536349
0.68807399 0.0165835 -0.475454
0.546942 0.040725999 -0.47428
0.65110999 0.019089701 -0.466196
0.65249199 0.0131974 -0.489182
0.66266602 0.028257599 -0.42083201
0.68159902 0.0122157 -0.458464
0.667337 0.0307019 -0.32510799
0.64209402 0.02571 -0.47739601
0.52348799 -0.00676654 -0.48836401
0.68967998 0.0093602398 -0.40091699
0.044497799 0.0571074 -0.55279899
0.68847102 0.0208652 -0.42566001
0.68139201 0.019230099 -0.44381899
0.53431702 -0.0152418 -0.511747
0.65830499 0.025630999 -0.32760701
0.56328499 -0.0149887 -0.52477002
0.214149 0.019404899 -0.48208699
0.69066101 -0.026111299 -0.53422999
0.63369203 0.0189787 -0.425576
0.53079998 -0.019207999 -0.61251801
0.43664399 -0.016892901 -0.49185699
0.45196 -0.022374799 -0.55202001
0.64790601 0.0212972 -0.43232599
0.394519 -0.0077058598 -0.50730699
0.655945 0.020001501 -0.423751
0.68224502 -0.035519399 -0.47607401
0.556539 0.000412997 -0.41666001
0.69847703 0.033389602 -0.376618
0.25689501 0.028566601 -0.48585999
0.211665 0.033527199 -0.48412299
0.44763801 -0.0050144601 -0.62954301
0.69833302 0.0176918 -0.42905101
0.73961997 -0.0326203 -0.50637197
0.66197002 0.0204325 -0.42663199
0.745143 -0.034649801 -0.51893502
0.68014097 0.0083386404 -0.41772401
