# .PCD v0.7 - Point Cloud Data file format
VERSION 0.7
FIELDS x y z
SIZE 4 4 4
TYPE F F F
COUNT 1 1 1
WIDTH 85
HEIGHT 1
VIEWPOINT 0 0 0 1 0 0 0
POINTS 85
DATA ascii
-4.0122199 0.132166 2.3864601
-3.9738901 0.36193901 2.23488
-3.9351599 0.41069499 2.1777201
-4.0113602 0.45441499 2.24123
-4.0021 0.127148 2.3208799
-3.9401801 0.216488 2.38258
-3.93733 0.27251601 2.34657
-3.97575 0.37193 2.2266099
-3.95783 0.359198 2.7011499
-3.88433 0.43587801 2.1589401
-3.90364 0.43663299 2.1631899
-3.86127 0.45034301 2.12743
-4.0069499 0.123568 2.3146901
-3.9337599 0.19933701 2.3089499
-4.02701 0.36798701 2.2696199
-3.9844899 0.43799001 2.2365699
-3.92855 0.45621201 2.2551501
-3.9517701 0.28756899 2.4284799
-3.85867 0.35940301 2.131
-3.93997 0.41363499 2.16872
-3.8966801 0.27739599 2.3245299
-3.94643 0.28453699 2.5037501
-3.9112101 0.39279801 2.70153
-3.9544599 0.18574201 2.36728
-3.9941499 0.376948 2.26248
-3.9524 0.466912 2.2174101
-3.9528201 0.29113001 2.5014999
-3.93471 0.31105101 2.7151201
-3.9089799 0.33812299 2.5885799
-3.9016199 0.35299 2.4898601
-3.9612701 0.32665601 2.4864099
-3.98528 0.27952501 2.41996
-3.9026401 0.460724 2.13557
-3.94945 0.23977999 2.3596599
-3.9174399 0.28528601 2.4156301
-3.8814001 0.26703799 2.3080499
-3.8993101 0.39771199 2.7065899
-3.9972601 0.28112701 2.47311
-3.9640801 0.402105 2.1647401
-3.88309 0.39338499 2.6947801
-3.8777699 0.26707 2.30162
-3.9579899 0.346605 2.1556101
-3.99488 0.275065 2.42819
-3.95524 0.117994 2.3459001
-3.8840699 0.271034 2.31108
-3.9005599 0.35188299 2.49896
-3.92893 0.43483299 2.1424501
-3.9191599 0.31521001 2.40347
-3.9706099 0.36360601 2.6682799
-3.9244699 0.43226999 2.1270001
-3.9503901 0.433265 2.2193201
-3.8724899 0.33605501 2.428
-3.9045701 0.288885 2.09902
-3.9174099 0.52272898 2.3685801
-3.9307101 0.43011901 2.1340799
-3.9297199 0.358228 2.1967499
-3.9105799 0.31307301 2.39521
-3.9206901 0.32784101 2.6231101
-3.9333401 0.35782599 2.1974299
-3.9736099 0.119891 2.2527499
-3.87866 0.46139199 2.1242299
-3.98368 0.11098 2.2995601
-3.9084301 0.34173399 2.4393101
-3.9064901 0.41951001 2.44432
-3.9486101 0.464338 2.26332
-3.9761801 0.106705 2.2711101
-3.95559 0.1855 2.2959599
-3.9746001 0.21528199 2.23719
-3.9381599 0.32721901 2.6087799
-3.9000299 0.328857 2.4097099
-3.92997 0.34985101 2.1812999
-3.9732101 0.32939601 2.3905301
-3.9219999 0.269288 2.3281901
-3.9077401 0.35046801 2.4888599
-3.9758999 0.28282499 2.1896
-3.9040401 0.45009801 2.25103
-3.95258 0.36629301 2.2550299
-3.9949 0.34832901 2.4534199
-3.9939401 0.19323 2.3578899
-3.8998699 0.346223 2.40854
-3.9216101 0.468997 2.1169701
-3.95135 0.44149101 2.23436
-3.9367199 0.377067 2.2629299
-3.9528201 0.269968 2.3998001
-3.9303501 0.428736 2.2249
