# .PCD v0.7 - Point Cloud Data file format
VERSION 0.7
FIELDS x y z
SIZE 4 4 4
TYPE F F F
COUNT 1 1 1
WIDTH 78
HEIGHT 1
VIEWPOINT 0 0 0 1 0 0 0
POINTS 78
DATA ascii
1.8710001 0.37855101 8.3748302
1.86773 -0.211493 8.76758
1.8933001 0.14425901 8.5662403
1.89873 -0.0095382798 8.5668602
1.8884799 0.29604 8.4276505
1.90237 0.091149397 8.5638103
1.9033 0.345442 8.40903
1.95869 0.145376 8.5623598
1.89086 0.059975699 8.6003904
1.9140199 0.24414501 8.5880499
1.94164 0.33326799 8.5734196
1.8584 -0.22978701 8.6256599
1.8991899 -0.137382 8.6008301
1.89547 -0.0443318 8.6009798
1.89135 0.094530001 8.6004
1.9044 0.21084499 8.5961704
1.92761 0.31357601 8.5845699
1.9335901 0.14168 8.5775204
1.9289401 0.28146899 8.5809097
1.88169 -0.153485 8.6108503
1.8836 -0.079443 8.6106195
1.8971601 0.030554 8.5998602
1.91944 0.13764 8.5844603
1.92583 0.100185 8.5851898
1.86599 -0.209305 8.6210699
1.9134099 0.167235 8.5915604
1.89027 -0.0589047 8.6057997
1.92081 0.147938 8.58638
1.90345 0.0224145 8.5955601
1.87538 -0.14998899 8.6163101
1.91495 0.153464 8.58883
1.87649 -0.0930911 8.6137505
1.90444 0.109986 8.5935497
1.9191099 0.23342501 8.5878
1.9282399 0.34002799 8.58463
1.89178 -0.018081199 8.6048203
1.87328 -0.151558 8.6171303
1.80585 -0.1411 8.4648304
1.89108 0.091583297 8.6025295
1.91557 0.20011 8.5878801
1.92397 0.27607399 8.5819302
1.8909 -0.0081785498 8.5996704
1.86028 -0.20044 8.7705803
1.87593 -0.19790401 8.6137304
1.87669 -0.111294 8.6105604
1.89928 0.035996899 8.5976696
1.90668 0.102853 8.59377
1.92361 0.169672 8.5855303
1.93401 0.29834601 8.5804996
1.92221 0.177296 8.5853796
1.86546 -0.218284 8.6177597
1.86559 -0.17660201 8.6131496
1.86421 -0.171673 8.6179705
1.91605 0.131065 8.54632
1.93756 0.34326601 8.5750198
1.8978601 0.353701 8.5789499
1.90084 0.188594 8.59132
1.91872 0.30315399 8.5807896
1.90299 0.079228602 8.5975704
1.9118 0.25269699 8.5868397
1.8657399 -0.190097 8.6238003
1.8833801 -0.016323701 8.6053896
1.90429 0.17610499 8.5914698
1.9202501 0.29351699 8.5826998
1.85674 -0.236525 8.6282597
1.85972 -0.211827 8.7896204
1.92246 0.209126 8.5851202
1.9026999 0.0809981 8.5949697
1.87989 -0.149083 8.6127195
1.91768 0.250453 8.5848198
1.8724101 -0.10218 8.6132402
1.88106 -0.038380601 8.6051798
1.91312 0.128832 8.58708
1.88896 0.061708398 8.5647802
1.89428 0.111578 8.55863
1.92071 0.232151 8.5391703
1.92213 0.27134499 8.5383101
1.93211 -0.275563 8.7573605
