# .PCD v0.7 - Point Cloud Data file format
VERSION 0.7
FIELDS x y z
SIZE 4 4 4
TYPE F F F
COUNT 1 1 1
WIDTH 405
HEIGHT 1
VIEWPOINT 0 0 0 1 0 0 0
POINTS 405
DATA ascii
-0.94403398 0.0612619 4.6262298
-0.89778298 0.200739 4.7018399
-0.94680399 0.087244198 4.6531
-0.94818097 -0.233041 4.73276
-0.87695599 0.36470199 4.6819201
-0.93510997 -0.16049901 4.7246299
-0.92888498 -0.10477 4.7427902
-0.91949499 -0.00177629 4.7235298
-0.92465502 -0.043963701 4.7231998
-0.91660398 -0.0128887 4.7135301
-0.95067501 0.18161599 4.6641698
-0.91760403 0.046803098 4.7275801
-0.91327399 0.0511382 4.7308898
-0.91954398 -0.0063918498 4.7092299
-0.90807402 0.115705 4.6988101
-0.95302099 0.130078 4.6610799
-0.94094402 0.137908 4.6571298
-0.88918799 0.27010301 4.69907
-0.88170898 0.32804 4.6889
-0.96580601 -0.059485201 4.6763501
-0.91925001 0.34184301 4.6430101
-0.87631202 0.370195 4.6826701
-0.870354 0.41863 4.68188
-0.86912 0.43051401 4.6876402
-0.90668303 0.43627 4.62257
-0.86629701 0.45007899 4.6764302
-0.85297 0.55902302 4.6765699
-0.84867799 0.61553597 4.64429
-0.96695501 -0.086269602 4.6406898
-0.936544 -0.14270499 4.7171898
-0.93612599 0.235552 4.6509299
-0.99399799 -0.29276699 4.6786199
-0.84212202 0.63250601 4.6279802
-0.98878801 -0.241559 4.6949501
-0.85944301 0.53466702 4.6662998
-0.94287097 -0.219808 4.7386198
-0.94967902 -0.24735101 4.7256699
-0.98530102 -0.272163 4.6647201
-0.95074701 -0.26384801 4.7513299
-0.94423997 -0.206797 4.7386298
-0.891716 0.53789699 4.5927701
-0.914002 0.066213898 4.7148099
-0.89448398 0.205506 4.70895
-0.87700403 0.36144599 4.68607
-0.85904801 0.52201402 4.6644402
-0.89350402 0.52254301 4.5962601
-0.88658601 0.58841097 4.5994
-0.88789499 0.62105697 4.6188698
-0.88681 0.63429302 4.62642
-0.839908 0.65727299 4.6562901
-0.87752998 0.68970603 4.6424098
-0.90203702 0.171362 4.7157001
-0.91280299 0.062798403 4.7445202
-0.93833202 0.29901001 4.6535602
-0.95441902 0.152417 4.6679301
-0.84482801 0.65379 4.6655402
-1.00278 -0.26007101 4.7003999
-1.00203 -0.246336 4.70263
-0.99842298 -0.207423 4.6964002
-0.94246697 -0.16067199 4.7535601
-0.91785902 0.0429148 4.7399702
-0.98494202 -0.088187099 4.6862702
-0.929928 -0.063810498 4.7391701
-0.92381197 -0.0244726 4.74863
-0.97571403 -0.0167036 4.68257
-0.98850799 -0.122629 4.6950302
-0.920196 -0.0255016 4.7507601
-0.96867198 0.026191801 4.6796598
-0.96741301 0.040805899 4.6781301
-0.91408598 0.047196001 4.7453299
-0.96469802 0.074901901 4.6765499
-0.96297801 0.094416499 4.67415
-0.97989899 -0.065258302 4.6876702
-0.89670497 0.197276 4.7228899
-0.94427103 0.23035 4.6609402
-0.89077598 0.25896099 4.7086902
-0.93659002 0.27917501 4.6567798
-0.88783401 0.28372899 4.6957202
-0.93204498 0.333462 4.65237
-0.92886502 0.36757401 4.6465502
-0.92628002 0.402771 4.64709
-0.86859399 0.43111601 4.6971302
-0.881598 0.32710299 4.7094202
-0.86568701 0.46174601 4.6903801
-0.91117799 0.49101099 4.6350498
-0.90920103 0.51621097 4.6343398
-0.90498799 0.565947 4.6298699
-0.85067397 0.58577597 4.6721401
-0.89492702 0.64063001 4.6221099
-0.83569902 0.67130703 4.6673498
-0.83443201 0.68790901 4.66816
-0.90740901 0.119978 4.73282
-0.85918498 0.53394002 4.6792698
-0.87421697 0.40357301 4.6911502
-0.90503198 0.55968499 4.62567
-0.88046598 0.681584 4.6181202
-0.915389 0.068831697 4.7344298
-0.95106 -0.24191 4.7367001
-0.92128903 0.0065254802 4.7472901
-0.91817302 0.0411142 4.7402601
-0.91279399 0.084196597 4.7385302
-0.920488 -0.0083695799 4.7455401
-0.93432403 0.308148 4.6561499
-0.97880602 -0.16314 4.6894798
-0.95045602 0.18108401 4.6671
-0.84670401 0.62891102 4.67346
-0.92187297 0.0090873102 4.7353201
-0.95406097 -0.28322801 4.7397799
-0.98734403 -0.22959501 4.69666
-0.93162501 -0.128162 4.7547798
-0.930655 -0.089129701 4.7504902
-0.86398298 0.46550199 4.6978502
-0.924909 -0.041102201 4.7541299
-0.966874 0.054017399 4.6817799
-0.96401501 0.105654 4.6774302
-0.94268602 -0.181586 4.7647099
-0.91087902 0.094868898 4.7258902
-0.84954798 0.57657498 4.6814799
-0.90444398 0.14876901 4.7298598
-0.972 -0.0179749 4.6837902
-0.88995302 0.26146501 4.7165098
-0.88444299 0.30427799 4.7113099
-0.88006401 0.33522299 4.6992698
-0.93150002 0.35920799 4.6514401
-0.87456399 0.410624 4.69491
-0.90297103 0.46438101 4.6371899
-0.91729301 0.47071701 4.6411901
-0.86359602 0.49496201 4.6825199
-0.859492 0.52641898 4.67765
-0.88990802 0.56552798 4.62535
-0.84174299 0.65977299 4.64992
-0.84037101 0.66929001 4.6458201
-0.88083303 0.63657397 4.6184702
-0.95211399 -0.26039401 4.7587099
-0.89817601 0.197035 4.7228599
-0.91295397 0.51200098 4.6375499
-0.89236599 0.66654599 4.6283498
-0.85083401 0.592897 4.70017
-0.89977401 0.59548402 4.62992
-0.93909901 0.27887699 4.6561699
-0.89121097 0.67646903 4.6272702
-0.91373599 0.54277498 4.63905
-0.954045 -0.25996801 4.7786598
-0.995974 -0.18940599 4.6993198
-0.97998899 -0.0841088 4.68643
-0.97749901 -0.0610037 4.6853099
-0.93177998 0.381286 4.65169
-0.93586302 0.34226099 4.6528201
-0.96973598 0.038060799 4.6758199
-0.844069 0.65102297 4.69485
-0.94918102 0.188054 4.6627002
-0.94601798 0.25605699 4.6631899
-0.943618 0.275065 4.65979
-0.94004101 0.30358699 4.65485
-0.87946099 0.347774 4.7234802
-0.91340798 0.056770898 4.7508001
-0.96556902 0.041770399 4.6742501
-0.92617702 0.394862 4.6475101
-0.92105198 0.43833199 4.6422801
-0.89826298 0.61083901 4.6302299
-0.84864801 0.607373 4.69417
-0.976367 -0.018079801 4.6826901
-0.99956298 -0.22144499 4.70189
-0.949435 -0.212373 4.7827401
-0.93352699 -0.113827 4.7688498
-0.89407599 0.224565 4.7373099
-0.97588998 -0.047039099 4.6838799
-0.92035002 -0.00356948 4.7555599
-0.967188 0.066079102 4.67766
-0.91828501 0.49766999 4.6391802
-0.95154297 0.169122 4.6658802
-0.95165497 0.20333301 4.6655598
-0.90705597 0.56664699 4.6348
-0.99776697 -0.23663899 4.7033501
-0.93582302 0.30768099 4.6535501
-0.85540098 0.54969698 4.69981
-0.95237398 -0.24936 4.7736802
-0.97036999 -0.064463198 4.6791101
-0.96728498 -0.0262214 4.6778202
-0.97146797 0.0097875996 4.6798601
-0.956622 0.094671004 4.6688299
-0.94482398 0.14103299 4.65908
-0.94820702 0.195639 4.66398
-1.0062799 -0.29682201 4.7109599
-1.00264 -0.25912601 4.7063398
-0.99104702 -0.164252 4.6986599
-0.98925501 -0.143226 4.69735
-0.96290803 0.0169302 4.6715202
-0.95865202 0.112951 4.6695099
-0.94757801 0.204533 4.6641598
-0.92927402 -0.090652898 4.76717
-0.92094302 0.460417 4.6412601
-0.91009098 0.119229 4.7526498
-0.906394 0.15716 4.7484798
-0.89573699 0.18877099 4.7432899
-0.88413799 0.30886599 4.7310901
-0.83525997 0.69154698 4.6881099
-0.928262 0.42006901 4.6464801
-0.94604301 -0.222847 4.7838402
-0.85943103 0.483031 4.7104802
-0.91171598 0.52439302 4.6354299
-0.85453898 0.54412198 4.7116299
-0.85110003 0.578866 4.7076001
-0.84857899 0.60359299 4.7042098
-0.88793898 0.63577098 4.62603
-0.88710803 0.64526701 4.6254301
-0.89314097 0.66048998 4.6272101
-0.88317198 0.69355899 4.6241102
-0.92604101 0.400893 4.6447802
-0.93643999 0.36612001 4.651
-0.902955 0.590128 4.6331601
-0.94123799 0.27106699 4.6566601
-0.89453 0.242301 4.73981
-0.96476799 0.082655698 4.67309
-0.98019099 -0.074457698 4.6884699
-0.945149 0.16663501 4.6594501
-0.94827503 0.137842 4.66466
-0.97035098 0.0253805 4.67838
-0.94403899 0.225766 4.6627998
-0.98780799 -0.115943 4.6927199
-0.99182397 -0.158246 4.6958399
-0.992688 -0.206135 4.69802
-0.99689198 -0.24436601 4.7052798
-0.95059699 0.108955 4.6632099
-0.97917497 -0.030595601 4.6823401
-0.97699499 -0.0023911099 4.6840801
-0.89736599 0.20627999 4.7371001
-0.89352101 0.24802101 4.7365098
-0.90074098 0.16997699 4.7379398
-0.874919 0.393509 4.7211199
-0.92940497 -0.079740703 4.7606201
-0.92625803 -0.044474401 4.7610998
-0.87127602 0.43030101 4.7178998
-0.90317899 0.14416599 4.7389498
-0.88384902 0.29870999 4.72434
-0.91366601 0.0833674 4.7502699
-0.938685 0.27904499 4.6566701
-0.92750698 0.35662299 4.64957
-0.89643103 0.216711 4.7372298
-0.94010901 0.224914 4.6594701
-0.93760598 0.25429901 4.65979
-0.91985202 0.021814801 4.7567902
-0.922575 0.445317 4.6423502
-0.91909403 0.485457 4.64218
-0.890782 0.665088 4.6275201
-0.95717603 -0.287361 4.7744398
-0.835105 0.70180398 4.67978
-0.92174703 0.41539899 4.6440301
-0.91979301 0.43497899 4.6419001
-0.92639703 0.40605101 4.6458702
-0.94883198 -0.23092 4.7804198
-0.94514501 -0.191017 4.77952
-0.94203198 -0.16493 4.7716398
-0.878039 0.70688701 4.6127701
-0.95502198 -0.29574701 4.7839899
-0.916637 0.46985999 4.64077
-0.915411 0.0259971 4.7552199
-0.933492 0.332634 4.65204
-0.90345401 0.56910998 4.6330099
-0.99685401 -0.204787 4.6989002
-0.99485499 -0.18781801 4.6951399
-0.98784697 -0.18153299 4.6929302
-0.97737598 0.0114342 4.6784501
-0.96929002 0.030773001 4.6757102
-0.97621202 0.0362795 4.6810298
-0.84263599 0.62943602 4.6971502
-0.93813097 0.196761 4.6572599
-0.92256403 0.37801701 4.6444702
-0.920717 0.39982599 4.6430602
-0.91612899 0.49704 4.63901
-0.83681601 0.67957503 4.6851802
-0.94809902 -0.240165 4.7820902
-0.93842697 -0.17385601 4.7750702
-0.90310299 0.16231 4.7385402
-0.92581302 0.338835 4.6466699
-0.86568099 0.41069201 4.7126198
-0.94759899 0.121289 4.6589999
-0.92550898 -0.0124296 4.7600598
-0.94548398 0.156785 4.65731
-0.89245999 0.259168 4.7326598
-0.88437802 0.315245 4.72364
-0.87589502 0.39486399 4.7197599
-0.86664701 0.47503299 4.7121701
-0.90624303 0.48343199 4.6321998
-0.90416503 0.51261801 4.6294799
-0.89775199 0.62410498 4.6259999
-1.00867 -0.27643499 4.7091098
-0.99546802 -0.19687 4.70188
-0.99047601 -0.15612601 4.6981001
-0.987454 -0.100588 4.6946802
-0.970312 0.00378958 4.67976
-0.95718998 0.076429099 4.6686802
-0.95067698 0.16041499 4.6624999
-0.943551 0.25448099 4.65906
-0.94539201 0.24054199 4.66117
-0.94368601 0.220916 4.6595001
-0.95973802 0.091119498 4.6724501
-1.00562 -0.24590699 4.7104502
-0.99426198 -0.220154 4.70051
-0.98122501 -0.054626901 4.6867499
-0.96487802 0.0451742 4.6736898
-0.95405501 0.199397 4.6655798
-0.98483801 -0.114771 4.6907501
-0.99619001 -0.17306501 4.7005901
-1.00146 -0.21401601 4.7059302
-0.87249202 0.362562 4.71386
-0.905155 0.54316998 4.63551
-0.93589598 -0.133764 4.7711601
-0.93124598 0.32396099 4.6510901
-0.93017799 -0.093890801 4.7615399
-0.90837598 0.548666 4.6368399
-0.92315102 0.42414099 4.6455498
-0.86223698 0.48669401 4.71277
-0.86189598 0.49247 4.71524
-0.85427898 0.54732603 4.7040601
-0.90212202 0.60196298 4.6335402
-0.899019 0.625678 4.6301198
-0.90473002 0.112938 4.7454901
-0.84582299 0.62090498 4.70295
-0.83387703 0.71288198 4.6907201
-0.89158303 0.69581097 4.63061
-0.88231599 0.70316702 4.6231098
-0.956352 -0.28691399 4.796
-0.95139998 -0.24782801 4.79182
-0.94472498 -0.198277 4.78333
-0.92846102 -0.079314999 4.7610202
-0.912727 0.50979 4.63797
-0.89960301 0.15273701 4.74054
-0.898287 0.162687 4.7390399
-0.83928698 0.66473103 4.6904602
-0.94124198 0.244453 4.6600299
-0.88808203 0.23711599 4.7248502
-0.88743401 0.252994 4.7340999
-0.91568297 0.45154101 4.6396899
-0.93184298 0.347996 4.6487899
-0.89226002 0.64920902 4.6262798
-0.91759098 0.437549 4.64218
-0.999264 -0.25309899 4.7052698
-0.97048801 -0.0040122899 4.6816602
-0.99367601 -0.23892701 4.7023201
-0.982014 -0.20140199 4.7025499
-0.994717 -0.180776 4.6985502
-0.98602802 -0.136554 4.6967101
-0.97757697 -0.033489801 4.6832399
-0.96890199 0.042655099 4.6773
-0.98078001 -0.059066501 4.6883101
-0.95639402 0.118229 4.6703801
-0.94671899 0.236182 4.66078
-0.99298298 -0.161222 4.7022901
-0.998034 -0.274928 4.7079501
-0.92938602 -0.047153901 4.7568498
-0.871086 0.41856 4.7091799
-0.92241198 0.41490901 4.6454601
-0.87549299 0.38050699 4.7128
-0.92614299 -0.053796101 4.7597098
-0.91788602 0.016843401 4.75177
-0.89446098 0.250287 4.7210398
-0.89866698 0.212217 4.7214799
-0.86718899 0.45057401 4.7030702
-0.954759 -0.27620599 4.76053
-0.94801497 -0.22163001 4.7487001
-0.94040102 -0.178242 4.7690101
-0.93675601 -0.111889 4.7610102
-0.91529 0.47632501 4.6393499
-0.93296701 -0.0840903 4.7494202
-0.89448202 0.217747 4.7305002
-0.92305601 -0.0266947 4.7579799
-0.92240298 0.01245 4.7499199
-0.88093501 0.33094099 4.7126498
-0.91602999 0.033120401 4.75071
-0.85615498 0.51055998 4.6986499
-0.91042799 0.082015999 4.7470498
-0.90914798 0.092887104 4.7456799
-0.91147101 0.104438 4.7367902
-0.90862799 0.125912 4.7291698
-0.935278 0.30206501 4.6542902
-0.89875501 0.179592 4.73175
-0.93005198 -0.086531803 4.76474
-0.89502901 0.244783 4.72049
-0.887694 0.27782601 4.72756
-0.85282898 0.576527 4.6948099
-0.88351101 0.30944201 4.7160902
-0.933393 0.31719899 4.65137
-0.86942101 0.45827401 4.6863098
-0.92873597 0.358201 4.6483598
-0.92196798 0.383459 4.6456499
-0.94134599 -0.15003701 4.7673402
-0.86212897 0.49384901 4.6981902
-0.91252899 0.50267202 4.6399298
-0.93818903 -0.157067 4.7708998
-0.90700299 0.54810297 4.6325998
-0.85225099 0.61138999 4.6805701
-0.84796298 0.638147 4.6593599
-0.87787402 0.3583 4.7118001
-0.83982199 0.68031102 4.66892
-0.94521898 -0.186995 4.7644701
-0.91517502 0.072017998 4.73909
-0.904037 0.136347 4.7403102
-0.84519303 0.64120901 4.6863298
-0.94860703 -0.248733 4.7763901
-0.89770198 0.190667 4.7344298
-0.928765 -0.041746002 4.7564201
-0.94461101 -0.211595 4.7778201
-0.85978699 0.54669499 4.6874099
-0.854653 0.55962998 4.6942601
