# .PCD v0.7 - Point Cloud Data file format
VERSION 0.7
FIELDS x y z
SIZE 4 4 4
TYPE F F F
COUNT 1 1 1
WIDTH 75
HEIGHT 1
VIEWPOINT 0 0 0 1 0 0 0
POINTS 75
DATA ascii
6.97609 -0.053215802 6.08043
6.74159 -0.056260802 6.02988
6.6391602 -0.0080969604 6.0865598
6.6196499 -0.0061832899 6.0787702
6.4967699 -0.0158081 6.0527
6.2487402 0.0131821 6.0497098
6.7100401 -0.039661601 6.0745401
6.13659 0.044924598 6.0760002
6.0713701 0.104296 6.1015701
6.11373 0.100354 6.1020298
7.0493002 -0.061615001 6.0760298
6.9484901 -0.072681397 6.0706201
6.9551902 -0.073310599 6.0644002
6.67767 -0.030883901 6.07828
6.6314101 -0.0111543 6.0903802
6.1664901 0.103203 6.1058898
6.9619699 -0.076629899 6.0652499
7.1855001 -0.088913001 6.0622001
7.26511 -0.11481 6.0714002
7.28162 -0.0998125 6.06355
6.64639 -0.026759 6.0795999
6.62853 -0.000901883 6.0827298
7.0029101 -0.0613694 6.0661702
5.9798002 0.053626101 6.0767298
6.7049398 -0.0434421 6.0633302
6.95507 -0.054699399 6.0743699
6.7606101 -0.0518477 6.06355
7.27914 -0.120633 6.06531
6.6989799 -0.044455901 6.06319
7.2757201 -0.100275 6.0616698
6.3196402 0.0119627 6.0827298
7.1872602 -0.085140601 6.0625801
6.9422402 -0.049813502 6.0724502
7.0235801 -0.064688601 6.0646901
6.9690099 -0.049692299 6.0703201
6.9599099 -0.0773772 6.0668001
6.6817999 -0.039064899 6.0689001
6.6435199 0.0294734 6.1163902
6.3111501 0.0120492 6.0771399
6.5226202 -0.0161837 6.0694799
7.27916 -0.102223 6.0616798
7.1896901 -0.088191301 6.0608001
6.9526901 -0.0557869 6.0622702
7.1890202 -0.088955402 6.0585899
6.3092699 0.0134261 6.07797
6.9475598 -0.056510299 6.0595798
6.3122702 0.0131694 6.0774202
6.7272801 -0.027796799 6.0590901
6.55053 -0.0230451 6.0653901
6.5283499 -0.018776899 6.0663199
6.9731698 -0.0618756 6.0555301
6.7102299 -0.039942902 6.0654402
6.5464001 -0.021227701 6.0655999
6.4492302 -0.0045728302 6.0707798
6.7100401 -0.039882001 6.06601
6.71207 -0.041467901 6.0644398
6.31248 0.011841 6.0769801
6.95158 -0.056508601 6.0605602
6.70259 -0.0391219 6.0684199
6.96627 -0.0599644 6.0545902
6.7069802 -0.042691398 6.0616298
6.70437 -0.0446603 6.0615101
6.7685699 -0.0518496 6.0601401
6.6862502 -0.037609398 6.0721598
6.6889901 -0.043166399 6.06074
6.75946 -0.0491056 6.0616798
6.9534202 -0.058626901 6.0529199
6.6027098 -0.025981501 6.0724902
6.6862702 -0.037546501 6.0714898
6.6965399 -0.041427299 6.0620298
6.7631898 -0.050652102 6.06071
6.9633899 -0.060579401 6.0570102
6.52771 -0.0174773 6.06881
6.6841602 -0.036631301 6.0680599
6.9498901 -0.057877101 6.05831
