# .PCD v0.7 - Point Cloud Data file format
VERSION 0.7
FIELDS x y z
SIZE 4 4 4
TYPE F F F
COUNT 1 1 1
WIDTH 109
HEIGHT 1
VIEWPOINT 0 0 0 1 0 0 0
POINTS 109
DATA ascii
1.82095 -0.34319901 6.0841899
1.91206 -0.243637 6.0461402
1.88315 -0.18770801 6.06179
1.9053 -0.34814799 6.0514498
1.90034 -0.22551 6.0506001
1.8308001 -0.399634 6.0804601
1.87552 -0.35187101 6.0645199
1.82078 -0.29949099 6.0833402
1.87279 -0.23079 6.0654202
1.9126199 -0.241285 6.04286
1.85339 -0.30535001 6.0769501
1.9061 -0.255207 6.0419998
1.8694 -0.28687999 6.0672698
1.88179 -0.25317401 6.05582
1.88055 -0.364281 6.0581002
1.8200999 -0.34724101 6.08113
1.86674 -0.28281799 6.0664001
1.86314 -0.23251399 6.05791
1.83777 -0.33269101 6.0742998
1.88142 -0.195301 6.0500398
1.8663 -0.356617 6.0700698
1.85525 -0.363561 6.0709
1.83927 -0.34552801 6.0721002
1.83871 -0.38982701 6.0787101
1.86922 -0.294651 6.0620999
1.87617 -0.26808 6.053
1.8889199 -0.351455 6.0566401
1.8396699 -0.33506399 6.0734501
1.88379 -0.245557 6.0535598
1.87868 -0.195213 6.0517502
1.8658299 -0.348169 6.0693698
1.87345 -0.306454 6.0640302
1.88998 -0.22692899 6.0581498
1.87037 -0.204631 6.0597601
1.8886 -0.25405601 6.05338
1.8639801 -0.36601299 6.0662799
1.86386 -0.327084 6.0689502
1.87158 -0.28613099 6.0608201
1.87097 -0.23058601 6.0584898
1.8698 -0.20249601 6.0576401
1.85238 -0.41567099 6.0669398
1.86136 -0.324058 6.0647702
1.86884 -0.31038699 6.0618701
1.8760099 -0.225802 6.0552602
1.86333 -0.32740301 6.06529
1.8535399 -0.38782901 6.0717802
1.8608 -0.285467 6.06178
1.87184 -0.214754 6.0550699
1.87097 -0.195461 6.05585
1.8730299 -0.22966699 6.0563698
1.85781 -0.35313901 6.0724401
1.86182 -0.32601899 6.0687799
1.857 -0.32390699 6.0657902
1.84619 -0.42216799 6.0769801
1.86935 -0.227496 6.0573001
1.8461699 -0.36825901 6.0743399
1.8556499 -0.33473301 6.0681901
1.86204 -0.31580499 6.0653901
1.8603801 -0.30931899 6.0664301
1.86375 -0.28750101 6.0664902
1.86215 -0.26080701 6.0595498
1.8675801 -0.23499 6.0575199
1.87394 -0.2051 6.05691
1.85042 -0.402628 6.0743098
1.8486 -0.386565 6.0741501
1.84728 -0.36166701 6.0722799
1.85263 -0.33979699 6.0707102
1.85337 -0.33108401 6.0689301
1.86156 -0.30833501 6.0664101
1.85162 -0.28881499 6.0617599
1.8667099 -0.257112 6.06356
1.86599 -0.245876 6.0609598
1.86878 -0.200528 6.0568099
1.87293 -0.193156 6.0574698
1.85025 -0.377092 6.0727401
1.8486 -0.36497799 6.0729499
1.84902 -0.357299 6.0711002
1.86538 -0.29493499 6.0641799
1.86757 -0.27066401 6.06214
1.8596801 -0.27151799 6.0576
1.86462 -0.26330599 6.0632401
1.87085 -0.24299499 6.0604501
1.8695 -0.23554 6.0591102
1.8698 -0.2164 6.0581398
1.88188 -0.193179 6.05936
1.8476599 -0.40343899 6.07479
1.84409 -0.37676901 6.07201
1.8466901 -0.37208501 6.0739598
1.84452 -0.36865699 6.0694499
1.85553 -0.29736 6.0655599
1.8637201 -0.23812599 6.0622101
1.84787 -0.35176399 6.0716701
1.87008 -0.191523 6.05478
1.86085 -0.24297699 6.0603399
1.8417799 -0.35663399 6.0742602
1.84973 -0.31992599 6.0697799
1.85119 -0.420055 6.0736599
1.8541501 -0.40688801 6.07265
1.85431 -0.37354001 6.0687799
1.86799 -0.243718 6.0616202
1.86718 -0.221747 6.05792
1.86918 -0.198549 6.0559101
1.86948 -0.188823 6.0544701
1.85647 -0.28822899 6.0668998
1.84603 -0.36695099 6.07304
1.86245 -0.26138401 6.0621901
1.85088 -0.349893 6.0700498
1.85373 -0.32718199 6.06778
1.8566999 -0.30767301 6.0641298
