# .PCD v0.7 - Point Cloud Data file format
VERSION 0.7
FIELDS x y z
SIZE 4 4 4
TYPE F F F
COUNT 1 1 1
WIDTH 278
HEIGHT 1
VIEWPOINT 0 0 0 1 0 0 0
POINTS 278
DATA ascii
3.3471999 0.99847198 6.1648202
3.45911 1.05045 6.1943698
3.4774799 1.02512 6.2161198
3.4695201 1.0294501 6.19418
3.41905 0.95662397 6.0280399
3.4665101 1.02552 6.19803
3.4600999 1.03192 6.1900601
3.24628 1.01054 6.1694598
3.2651701 0.99953598 6.1370602
3.1108699 1.00134 6.1231499
3.4382501 1.05611 6.22858
3.2446301 1.00804 6.15414
3.31762 1.06415 6.2581801
3.4500101 1.0199 6.1417499
3.26565 1.02203 6.1792002
3.2913101 1.04132 6.2065001
3.3142099 1.05565 6.2406998
3.3392 1.06831 6.2727699
3.3313 0.943964 6.01686
3.2690599 1.0689 6.26544
3.26212 1.02528 6.1852498
3.2807801 1.0181299 6.1814198
3.34044 1.03739 6.2138801
3.3175499 0.95971602 6.0337601
3.3726599 0.948883 6.0323901
3.3393099 1.04246 6.2311201
3.2793801 1.02198 6.1810398
3.32514 1.03877 6.2211399
3.40466 1.0430599 6.2340899
3.42329 1.06266 6.2544799
3.40575 0.954606 6.0475302
3.36747 1.02819 6.1979899
3.43943 1.04154 6.21768
3.2982399 1.01178 6.1740799
3.3131101 0.96692902 6.0156498
3.46646 1.05121 6.2252798
3.23248 0.98491901 6.0441399
3.42344 0.955154 6.0292902
3.4713299 1.03197 6.20786
3.3578701 1.04757 6.2469802
3.2948 1.02113 6.1932902
3.3838501 0.95793802 6.0444298
3.3998201 0.95669401 6.0444198
3.2634001 1.01099 6.15557
3.3899901 0.99683201 6.1616998
3.2904999 1.00007 6.1562099
3.32809 1.00449 6.1547999
3.3917699 0.964939 6.0467801
3.3025999 0.97562301 6.0507102
3.2676201 0.98220301 6.05545
3.26385 0.984065 6.05757
3.4029901 0.97675699 6.0619102
3.24347 1.0105 6.1517801
3.3601601 0.99363101 6.1524301
3.4195199 0.96469402 6.0588999
3.2163 0.99119902 6.0587201
3.2316999 0.99018699 6.0583901
3.28859 1.00014 6.1402402
3.4158199 0.987288 6.1531401
3.2872601 0.99372 6.1388001
3.3014801 0.99432302 6.14043
3.3446701 0.99502802 6.14395
3.3788099 0.98434401 6.1371198
3.4079001 0.97965997 6.0732698
3.33601 0.986857 6.13662
3.2136199 1.01236 6.0750699
3.4524701 0.98753703 6.1473699
3.38919 0.98021102 6.13447
3.41679 0.97770202 6.1347699
3.4001601 0.99036002 6.0798898
3.3004301 0.98460698 6.1289301
3.2117701 1.01115 6.08044
3.3777299 0.97588903 6.13097
3.2646101 0.98673701 6.12957
3.36481 0.98094201 6.1284199
3.1930301 1.01757 6.0856299
3.42909 0.99254102 6.0881801
3.3127501 1.00503 6.08709
3.4026799 0.97399598 6.12784
3.25049 1.01436 6.0851498
3.4648099 0.99441803 6.0893102
3.41974 0.99621099 6.08849
3.35109 1.00202 6.0868502
3.21488 1.01449 6.0851002
3.31055 0.98536599 6.12712
3.41675 0.972978 6.12885
3.2746201 0.99332201 6.1311798
3.24579 0.998097 6.1296401
3.34922 0.98239303 6.1375999
3.4461 0.995906 6.0945001
3.25282 1.01878 6.0872698
3.2156601 1.02154 6.08459
3.3331599 0.97520399 6.12433
3.3648901 0.97818202 6.1245899
3.3704901 0.970079 6.1244702
3.27285 0.98159897 6.1248899
3.1729701 1.0266 6.08463
3.4523001 0.99977601 6.0917201
3.31444 0.97668898 6.1214299
3.3779299 0.96218699 6.1244402
3.4035201 0.96419501 6.1212401
3.2824399 0.981417 6.1233401
3.3231201 0.98290402 6.1363602
3.4240601 0.99319798 6.0886698
3.4096701 0.97823399 6.1392398
3.4398799 1.00235 6.0903301
3.4238701 1.00228 6.08922
3.2664101 0.97585601 6.118
3.33939 0.965101 6.1213598
3.2304299 1.0247 6.0856199
3.2487299 1.0209301 6.0883999
3.28093 1.0197099 6.0917401
3.4096401 0.95910698 6.1195598
3.2007301 1.02572 6.08428
3.3048201 0.97266197 6.11724
3.1735799 1.02782 6.0859599
3.3980801 0.96287698 6.1220198
3.2479701 1.02077 6.0880299
3.33813 0.965644 6.11656
3.31741 0.96792799 6.11759
3.3583 0.97074199 6.1194701
3.30268 0.98025602 6.1231298
3.2692499 0.98326802 6.1220498
3.2007799 1.0169801 6.2252798
3.46171 0.99809301 6.0890498
3.4210501 1.0028501 6.0905299
3.40751 1.00533 6.0902801
3.37009 0.96555501 6.11866
3.29533 0.97523999 6.1210599
3.2846799 0.97610497 6.1219401
3.4593401 0.96043998 6.1275802
3.3721299 0.98098701 6.1272898
3.2852299 0.98487002 6.1282601
3.2656801 0.98606497 6.1170902
3.32602 0.98146898 6.1257401
3.38748 1.00524 6.0915999
3.25999 0.98362398 6.1189399
3.3984301 0.96852797 6.1219702
3.37657 0.96723902 6.1222501
3.3440299 0.972826 6.12047
3.2265 1.0222 6.0900798
3.3095901 0.97587299 6.1223798
3.2097499 1.00106 6.07758
3.2644501 0.980497 6.1152201
3.26758 0.989941 6.2522502
3.33005 0.972426 6.1684799
3.3068399 0.992055 6.1746302
3.3140099 0.99366301 6.2098498
3.3550701 0.98859102 6.1936402
3.2874801 0.98316002 6.1238399
3.2746301 0.99853498 6.1712599
3.2860701 0.99678302 6.1649199
3.33584 0.97568399 6.1396899
3.3143301 0.994528 6.1641698
3.3862 0.96887302 6.1479502
3.39323 0.968943 6.1544499
3.3435099 0.99530798 6.1813998
3.36321 0.99166298 6.14468
3.41167 0.99038601 6.11938
3.4003699 0.99709201 6.14112
3.4161301 0.991983 6.1533399
3.3348 0.97319901 6.1656299
3.2490001 1.0023299 6.1592398
3.28338 0.98501599 6.1213799
3.15295 0.98691899 6.13345
3.40799 0.97501999 6.0387802
3.2881701 0.98996699 6.1131802
3.3562 0.97998601 6.1189299
3.41856 0.97106302 6.0542498
3.27319 1.0070601 6.1284099
3.3661799 1.0023299 6.1406598
3.3976099 0.997531 6.1395602
3.3744199 0.97721398 6.1188798
3.26577 1.0065 6.1272202
3.4014699 0.97410798 6.1194201
3.3153801 1.01019 6.1420698
3.35794 1.0025001 6.1423402
3.4194901 0.96523798 6.0678902
3.3554001 0.980398 6.1175699
3.38183 0.97717899 6.1191101
3.4022601 0.999587 6.1431499
3.4368401 0.99285901 6.1487598
3.3859401 1.00358 6.1567001
3.2744401 1.00723 6.1241398
3.2874601 0.99050599 6.1150198
3.31425 0.98727602 6.1210399
3.40799 0.99793202 6.1391101
3.3980501 0.99922502 6.1546998
3.4187801 0.99515998 6.1463599
3.25629 0.98808098 6.1187
3.2411301 1.00234 6.0750299
3.31534 1.0834 6.1018701
3.2535501 0.99103099 6.1181002
3.2548599 0.99441701 6.12252
3.2779901 0.99133903 6.1187901
3.3203001 0.98382002 6.12464
3.3607399 0.98273599 6.1186299
3.37133 0.98156601 6.1218801
3.42114 0.98334301 6.0745401
3.4277301 0.98370701 6.0749402
3.43154 0.98524803 6.0721598
3.2200401 1.0029 6.0764599
3.26893 0.98840302 6.1165299
3.32495 0.985587 6.12293
3.4572401 0.97878599 6.1216698
3.2814901 0.98003501 6.12463
3.27192 0.990264 6.1101098
3.37376 0.97749698 6.1241899
3.2802501 0.98205698 6.1091299
3.34059 0.98776299 6.1238098
3.40343 0.98272002 6.1249599
3.3331101 0.98766798 6.1238499
3.2316799 1.00112 6.0785599
3.26072 0.99856502 6.1241598
3.4182999 0.98134798 6.0746102
3.30496 0.99109501 6.1177402
3.3180499 0.98895401 6.1231599
3.4588301 0.99618298 6.0781398
3.26301 0.98851502 6.1089401
3.2657101 0.99185097 6.1228399
3.2363801 1.0054801 6.0739398
3.32956 0.98762399 6.1213598
3.3559301 0.98578298 6.1224499
3.4102399 0.97798002 6.07796
3.4326701 0.98392302 6.07269
3.43027 0.98865402 6.07093
3.37502 0.98365098 6.1237798
3.31286 0.98835802 6.1224899
3.31076 0.98778403 6.0776
3.4168899 0.99106002 6.0708599
3.2137001 1.01748 6.0696902
3.3207901 0.98931599 6.1205502
3.39484 0.98096901 6.1244602
3.2312701 0.99893999 6.07618
3.3482201 0.98353702 6.1229801
3.43104 0.97442597 6.0763898
3.20733 1.01287 6.0714502
3.3090401 0.98777699 6.0773602
3.4184699 0.98740703 6.0724001
3.3278799 0.98537701 6.1223998
3.35865 0.98294199 6.12216
3.38656 0.98149401 6.1224499
3.4117301 0.977826 6.1223202
3.4277699 0.97445101 6.0760698
3.3959401 0.97613603 6.0770998
3.2134099 1.01256 6.0707698
3.3231001 0.98760903 6.1217599
3.3837099 0.981332 6.1237001
3.43297 0.98578501 6.0719099
3.23894 1.00703 6.07231
3.2858 1.00287 6.0713701
3.4295599 0.986938 6.0707698
3.3154199 0.98872697 6.1220698
3.31861 0.98788297 6.1270199
3.4051399 0.97756201 6.1261702
3.34407 0.98494899 6.1229501
3.4116399 0.97729599 6.1252198
3.26717 0.994394 6.1209302
3.2544 0.99322098 6.1191702
3.4181299 0.974361 6.07617
3.2551601 1.00697 6.0715699
3.2032299 1.01314 6.0713401
3.40219 0.988931 6.0734901
3.4158199 0.98818201 6.0719299
3.20351 1.00352 6.0767398
3.2172699 1.01287 6.0692101
3.4172399 1.01682 6.09797
3.3025301 0.98927701 6.12536
3.4070899 0.97947598 6.1265702
3.36778 0.98421299 6.12571
3.2985599 0.99091798 6.12254
3.39835 0.978248 6.0782499
3.2544701 0.98839098 6.1192698
3.28304 0.99430901 6.1238098
3.4068 0.99182802 6.0718098
3.30246 0.99053901 6.0778499
3.2286799 1.00834 6.0748301
3.25965 0.99019998 6.1265702
