# .PCD v0.7 - Point Cloud Data file format
VERSION 0.7
FIELDS x y z
SIZE 4 4 4
TYPE F F F
COUNT 1 1 1
WIDTH 88
HEIGHT 1
VIEWPOINT 0 0 0 1 0 0 0
POINTS 88
DATA ascii
2.6687 0.659796 7.5251999
2.6747899 0.62104303 7.6222301
2.7235799 0.63513303 7.54457
2.6054699 0.64709997 7.7290301
2.72313 0.59283799 7.5506101
2.6554 0.62878901 7.6068802
2.66588 0.63823497 7.62256
2.7117901 0.64172101 7.57482
2.7127399 0.64470601 7.53334
2.5943799 0.64253199 7.6965199
2.68344 0.64434701 7.55651
2.73803 0.61729503 7.5543399
2.66048 0.654724 7.5861402
2.6691501 0.653714 7.5767202
2.70874 0.62177902 7.5594001
2.7160001 0.59828502 7.5650601
2.6153901 0.64840299 7.7184701
2.6866701 0.62533599 7.5835099
2.7358501 0.61897701 7.5153499
2.66873 0.63405597 7.60777
2.70157 0.63949001 7.53899
2.72066 0.63787597 7.5160599
2.6670301 0.64595097 7.57302
2.7235301 0.58626199 7.5336099
2.7345099 0.61662602 7.5363898
2.6738701 0.64517099 7.5663099
2.6891601 0.62361401 7.5752301
2.6568799 0.65348399 7.5890398
2.5269201 0.65491199 7.6728201
2.7023699 0.62250799 7.56601
2.6580999 0.63574702 7.6169801
2.7379401 0.61394 7.5342999
2.68959 0.59809101 7.5709901
2.6887701 0.623564 7.5787001
2.5726099 0.66809499 7.5171599
2.7334001 0.61536098 7.5414801
2.7371399 0.61473399 7.5358701
2.6788001 0.62456 7.5915298
2.6628599 0.63066101 7.6051302
2.6804299 0.62823701 7.5862498
2.7195301 0.62220597 7.5310402
2.66745 0.64570802 7.5078301
2.6921201 0.621921 7.5752101
2.6392901 0.63437998 7.6202202
2.65521 0.64793199 7.58078
2.6616001 0.62966698 7.6019201
2.6620901 0.64215702 7.5710502
2.6654699 0.64030099 7.5672302
2.67996 0.62554997 7.5806899
2.73137 0.61294901 7.5362201
2.6573701 0.64504999 7.5766201
2.6883399 0.62251598 7.57302
2.6610899 0.62668598 7.5995202
2.68065 0.63630903 7.5518799
2.6612501 0.629547 7.5980201
2.73684 0.61198902 7.5341001
2.7204599 0.61312002 7.51296
2.6729801 0.63697398 7.5587301
2.6569901 0.64180601 7.5755801
2.6962299 0.61857998 7.5697498
2.73264 0.61372697 7.5353899
2.6411099 0.63113898 7.6150999
2.68822 0.62822801 7.58603
2.6967599 0.61980802 7.5402002
2.63556 0.631926 7.6191802
2.66294 0.63942498 7.5737
2.7518799 0.66910303 7.4977398
2.63872 0.63155901 7.6157198
2.6804299 0.63546699 7.5430102
2.7228 0.61359501 7.5532699
2.5968201 0.64089102 7.6888099
2.7990699 0.59577101 7.4355001
2.7226801 0.62555403 7.5026999
2.7073801 0.61677498 7.52597
2.6707301 0.627011 7.5926099
2.6740501 0.626369 7.5872798
2.5783701 0.826563 7.5796599
2.59691 0.670753 7.6701999
2.66167 0.63834 7.5520501
2.65237 0.64114702 7.56604
2.58533 0.66598499 7.6609602
2.67313 0.63556802 7.56003
2.7504499 0.63389802 7.5129399
2.6902499 0.63885498 7.5448899
2.7114201 0.62895399 7.5225101
2.7446301 0.63221198 7.5089202
2.7485199 0.635086 7.51335
2.7179301 0.635234 7.52669
