# .PCD v0.7 - Point Cloud Data file format
VERSION 0.7
FIELDS x y z
SIZE 4 4 4
TYPE F F F
COUNT 1 1 1
WIDTH 1574
HEIGHT 1
VIEWPOINT 0 0 0 1 0 0 0
POINTS 1574
DATA ascii
4.5433998 -0.629242 4.67659
4.5679598 -0.45166299 4.65798
4.5437598 -0.433752 4.7887502
4.5742898 -0.383479 4.6524
4.5460701 -0.370496 4.7841301
4.5738201 -0.36728999 4.6546202
4.5760999 -0.351587 4.6540098
4.5803099 -0.32423401 4.6531401
4.5034499 -0.582865 4.6772799
4.5833602 -0.29366001 4.6456699
4.62709 0.088772997 4.6115899
4.58495 -0.27449501 4.64394
4.5892501 -0.22837999 4.6452599
4.5912499 -0.22503699 4.6413102
4.6252899 0.068478502 4.6132898
4.59196 -0.20206399 4.6433101
4.5947099 -0.20234101 4.6405702
4.5990901 -0.164234 4.6431899
4.5999398 -0.14955901 4.6415501
4.5551 -0.537193 4.6715498
4.6027899 -0.132613 4.6312099
4.6039701 -0.114556 4.6293502
4.6071301 -0.085586801 4.6273899
4.5033898 -0.95956802 4.7077098
4.63451 0.145339 4.6041098
4.6199999 0.0300506 4.6149602
4.6137099 -0.024907099 4.62326
4.61235 -0.0493218 4.6259699
3.9535601 -0.93651998 4.8207698
4.1046801 -0.99389201 4.7005501
4.1227102 -0.99189299 4.7006202
4.0536299 -0.95485198 4.8305402
4.2070198 -1.00453 4.7025399
4.2085199 -1.00433 4.69909
4.2080798 -1.00158 4.7031102
4.2421699 -1.00983 4.7041602
4.12958 -0.96574998 4.8333998
4.5826898 -0.28174299 4.6483302
4.17379 -0.97293299 4.8346601
4.2975101 -1.01563 4.7038202
4.58078 -0.32460901 4.6484399
4.3579602 -1.02118 4.7025399
4.2923999 -0.98040402 4.8274498
4.5708399 -0.399012 4.6572199
4.5706501 -0.42340401 4.6557202
4.5663199 -0.44724301 4.66117
4.4980698 -1.00661 4.7109098
4.5023098 -0.97407299 4.7091699
4.5855198 -0.25500101 4.64641
4.0942502 -0.98797297 4.70052
4.54426 -0.603576 4.6754999
4.1744199 -1.00042 4.70544
4.0827999 -0.95294601 4.8134499
4.2024899 -0.99922901 4.7066202
4.6494498 0.27726001 4.5964499
4.2888999 -1.01794 4.7017899
4.28686 -1.01302 4.7035799
4.17946 -0.957461 4.81498
4.3252702 -1.01749 4.71029
4.2996802 -0.98387098 4.7167802
4.3892102 -1.0242701 4.7027102
4.3022499 -0.99578398 4.8340802
4.4868202 -1.04695 4.7211199
4.4980602 -0.99407703 4.71029
4.46839 -1.0162801 4.84723
4.5023799 -0.96366501 4.7086201
4.4643698 -0.97100198 4.8520298
4.4775701 -0.93419802 4.83249
4.4700699 -0.91939801 4.84654
4.51232 -0.89813 4.7000899
4.4795599 -0.91043401 4.82936
4.4878702 -0.87215197 4.8297601
4.4764299 -0.86412197 4.84094
4.5155201 -0.84542 4.6989398
4.51858 -0.82441598 4.6978502
4.5671501 -0.43077299 4.6595201
4.4897199 -0.73273897 4.8256202
4.4923801 -0.71086103 4.8235602
4.5341501 -0.69781798 4.6834602
4.4959898 -0.68964303 4.82269
4.53651 -0.668504 4.6803098
4.4992599 -0.65912902 4.8193302
4.5117698 -0.65325701 4.8069401
4.5003901 -0.62341899 4.8124499
4.5172701 -0.62856603 4.8073401
4.5034699 -0.597983 4.81004
4.52036 -0.59839398 4.8039699
4.5455298 -0.59145498 4.6744499
4.5251298 -0.555911 4.7996898
4.5102701 -0.54784399 4.8060699
4.5124798 -0.53556502 4.8057098
4.52666 -0.53894001 4.7975702
4.49231 -1.05586 4.72194
4.5554099 -0.50806499 4.66821
4.51724 -0.48983201 4.8005199
4.55759 -0.488437 4.6666198
4.5658202 -0.44235301 4.6604199
4.6491899 0.23546501 4.5942302
4.57165 -0.38089499 4.6546202
4.5753798 -0.346872 4.6518302
4.5782399 -0.328125 4.651
4.5829101 -0.29084501 4.6484499
4.6525402 0.26695901 4.59165
4.63341 0.14531399 4.60571
4.59097 -0.217439 4.6424599
4.5920801 -0.19946 4.6402502
4.5980201 -0.157086 4.6329899
4.6009102 -0.13912199 4.6323099
4.6069999 -0.079516001 4.62711
4.6458001 0.245657 4.5988302
4.6097102 -0.0618909 4.6263399
4.61134 -0.041375499 4.6241498
4.6247802 -0.0370024 4.6202598
4.6150398 -0.0104045 4.6219001
4.6184502 0.0234235 4.6189098
4.5110202 -0.88905603 4.7028198
4.62643 0.073423401 4.6122499
4.62883 0.105902 4.6086602
4.5120602 -0.953605 4.7253699
3.8768699 -0.97621 4.74052
4.7060499 0.62008703 4.5445199
4.7063398 0.62013203 4.5694098
3.8096499 -0.96419799 4.7063298
4.6982002 0.53107202 4.5694399
4.6585898 0.43879801 4.6982598
4.4446101 -1.0290101 4.8623099
4.6898298 0.45477 4.5692
4.5982399 -0.35389501 4.6389499
4.6740098 0.34055901 4.5805802
4.5978899 -0.34147599 4.63866
4.5261202 -0.63242102 4.8184299
4.6170998 -0.157611 4.6271701
4.5767798 -0.51091301 4.6614299
4.5436802 -0.50234699 4.80865
4.6071 -0.25580701 4.63902
4.6602302 0.227314 4.5922298
4.5971398 -0.34120199 4.6506
4.0438299 -0.99202901 4.7065401
4.5130701 -1.05774 4.7170601
4.6300101 -0.058944602 4.6280298
4.6051898 -0.255463 4.6507401
4.0523901 -0.95326698 4.8294702
4.2481198 -1.00962 4.7056198
4.07898 -0.95354301 4.8313098
4.0897899 -0.95658398 4.83286
4.0942202 -0.95836502 4.8303099
4.2689199 -1.0129 4.7061801
4.1203699 -0.96578699 4.83601
4.3031101 -1.01685 4.7089
4.3684201 -1.02472 4.70716
4.2326002 -0.98708898 4.8517599
4.3849001 -0.98711097 4.7044501
4.30369 -0.99506199 4.8467999
4.64468 0.236261 4.6002498
4.3694701 -0.99897403 4.8400898
4.4948802 -1.01689 4.7180099
4.5617299 -0.437861 4.66324
4.4046202 -1.00061 4.8397298
4.5004201 -0.97753203 4.71208
4.47014 -0.98636401 4.8414402
4.4745698 -0.94057 4.8378601
4.4383101 -0.900599 4.8389401
4.5116701 -0.86941701 4.7010002
4.4395199 -0.87521499 4.8350701
4.48353 -0.87493098 4.8297501
4.4871001 -0.86271 4.8255501
4.51759 -0.81366301 4.6981101
4.4576502 -0.70459002 4.81037
4.5338402 -0.67716098 4.6827202
4.4942799 -0.67742902 4.82236
4.4695802 -0.62747198 4.8100801
4.5004802 -0.63447398 4.8153701
4.4704299 -0.61200202 4.80792
4.4759102 -0.55970699 4.8041601
4.4777398 -0.54885399 4.8043299
4.50419 -0.93492103 4.7090702
4.4826298 -0.523754 4.8056102
4.55937 -0.50818598 4.6669402
4.5580802 -0.46880099 4.6644201
4.5172501 -0.50162297 4.8099999
4.5564699 -0.48259801 4.6649699
4.6152701 -0.00659385 4.6215701
4.57971 -0.28610101 4.6479502
4.4005899 -1.0319999 4.7056198
4.5606999 -0.47277001 4.6627698
4.5660701 -0.38983899 4.6600699
4.5438099 -0.42458901 4.68224
4.61727 0.0182452 4.6197801
4.56534 -0.42445701 4.6598902
4.5689301 -0.37995201 4.6565599
4.5502601 -0.40459499 4.68576
4.5643902 -0.406912 4.6610599
4.5237298 -0.56117201 4.8057299
4.5541801 -0.36333001 4.6830602
4.30586 -1.01817 4.7076998
4.5473599 -0.365605 4.7848201
4.5314002 -0.49221399 4.7956901
4.5676398 -0.365978 4.6579299
4.5790701 -0.29276699 4.6483402
4.5483999 -0.35453099 4.7839499
4.6270299 0.089483403 4.6139998
4.58599 -0.236892 4.64185
4.6360102 0.14034501 4.6061001
4.63521 0.161587 4.6066699
4.5764999 -0.31952399 4.64993
4.6440501 0.243453 4.6029701
4.5057402 -0.55251998 4.80545
4.6069798 -0.084734201 4.6298699
4.60815 -0.059720401 4.6272502
4.6271601 0.0982337 4.6128201
4.6289501 0.119494 4.6113901
4.6408901 0.21888199 4.6036
4.64502 0.214399 4.6037402
4.63726 0.161044 4.60427
4.0907302 -0.96163797 4.8295798
4.62113 0.049837399 4.6187601
4.6184402 0.030701499 4.61904
4.1370401 -0.969401 4.84306
4.1406698 -0.96748197 4.83566
4.3351898 -1.02133 4.7058802
4.1799998 -0.97171402 4.8344498
4.2014999 -0.97108901 4.8309698
4.4691901 -1.03986 4.7105498
4.3000002 -1.00152 4.8561301
4.4756999 -1.03818 4.7066798
4.3295999 -0.99481797 4.83604
4.3527598 -0.98782301 4.8313899
4.5188398 -0.595254 4.8063102
4.50211 -0.59071797 4.8085399
4.4467001 -1.0094399 4.8477402
4.4790802 -0.92638397 4.8280802
4.5119901 -0.89045 4.70471
4.5143499 -0.84733897 4.7002001
4.59974 -0.12950601 4.6342502
4.5984998 -0.13928001 4.6345301
4.59512 -0.171755 4.6361699
4.5229101 -0.77228099 4.6918001
4.4565101 -0.75776398 4.82023
4.4914598 -0.70487601 4.8243098
4.5901499 -0.20067801 4.6403899
4.5050998 -0.68739903 4.8134098
4.5871301 -0.226997 4.6414499
4.5018702 -0.62297797 4.8148298
4.5351 -0.66263902 4.6816902
4.3740902 -1.02025 4.7027202
4.50597 -0.92465901 4.7095499
4.4704099 -0.97147101 4.8410802
4.43221 -0.930511 4.84168
4.50841 -0.88897198 4.70754
4.4331498 -0.92323399 4.8417902
4.5107899 -0.86211002 4.70154
4.4791799 -0.91006202 4.8298101
4.4710999 -0.90953398 4.8513398
4.4408498 -0.86579698 4.83603
4.5316801 -0.72558701 4.6876602
4.5820699 -0.37436399 4.65696
4.53023 -0.69419497 4.6867099
4.4604001 -0.68586898 4.8188
4.5367899 -0.64111602 4.6823802
4.53549 -0.63821 4.68536
4.5581298 -0.45997801 4.6641302
4.5114899 -0.635364 4.8097401
4.5411401 -0.59775501 4.6768398
4.5006499 -0.60384899 4.8136702
4.5457501 -0.57199001 4.6739702
4.4992399 -0.57269299 4.8059001
4.5206299 -0.570337 4.8055
4.5490198 -0.53664303 4.6731
4.50386 -0.54507899 4.8079
4.5517502 -0.50725698 4.6676698
4.5587001 -0.45368901 4.66398
4.5685601 -0.36664799 4.6547599
4.56951 -0.35742599 4.6546602
4.5761199 -0.336548 4.6503201
4.5208302 -0.78041703 4.6972499
4.4746799 -0.85850602 4.8404799
4.53091 -0.31530699 4.7824898
4.5739398 -0.32705399 4.6512299
4.5520701 -0.31356201 4.7825198
4.5775099 -0.312121 4.6488199
4.4842401 -0.86931801 4.8301201
4.5120201 -0.852148 4.7016501
4.5806499 -0.26672801 4.6466498
4.5796299 -0.26028001 4.6491799
4.61233 -0.0099233799 4.6238298
4.6129498 -0.00416257 4.6238098
4.58744 -0.21606401 4.6434002
4.6209898 0.034684099 4.61937
4.5911598 -0.181141 4.6387901
4.5927401 -0.16629601 4.6387
4.6002698 -0.097979002 4.62993
4.6217399 0.082102701 4.6187901
4.62185 0.074969001 4.6156301
4.6177402 0.0086452998 4.61901
4.6171498 0.034150999 4.6195698
4.6203198 0.060056198 4.6198702
4.6185098 0.042977098 4.6199598
4.5465398 -0.408272 4.6867599
4.4941502 -1.0147099 4.7183199
4.5144501 -0.30982399 4.7938499
4.5788999 -0.28786501 4.6473398
4.6077299 -0.0434523 4.62714
4.5375099 -0.63810301 4.6828198
4.4947801 -0.64801699 4.8192701
4.3719401 -1.02465 4.7084398
4.49088 -1.0295 4.7235899
4.4953098 -1.0054801 4.7163701
4.5040002 -0.92291301 4.70895
4.4742899 -0.86885399 4.7094202
4.4365101 -0.91331702 4.8435402
4.47789 -0.905258 4.83636
4.4744201 -0.86830801 4.84653
4.5169702 -0.80590302 4.6988401
4.4813199 -0.78483498 4.69942
4.5233898 -0.79000801 4.69558
4.52354 -0.76625597 4.6934299
4.5231199 -0.73099399 4.6943598
4.5032802 -0.69810301 4.8166499
4.4900799 -0.69517899 4.8281102
4.5355701 -0.65660602 4.6834698
4.5070601 -0.65764701 4.8109198
4.5121002 -0.61861598 4.8074799
4.4700899 -0.60482103 4.8152299
4.5428901 -0.58063 4.67589
4.51261 -0.60428202 4.8064499
4.4762602 -0.58897603 4.8168998
4.4857302 -0.56401998 4.8229799
4.5198202 -0.55601001 4.8053298
4.5791202 -0.275646 4.6470399
4.5245199 -0.53184903 4.8033099
4.4903302 -0.51098698 4.8165998
4.5336199 -0.45203799 4.7950101
4.5616899 -0.42515099 4.6615701
4.5248399 -0.35876 4.78829
4.54778 -0.355028 4.6746402
4.63064 0.146323 4.60956
4.6359601 0.141105 4.6079102
4.5147901 -0.29742199 4.79562
4.58219 -0.252812 4.6443601
4.5552602 -0.241523 4.65938
4.5831099 -0.241235 4.6444302
4.5872798 -0.20704199 4.6420898
4.6045899 -0.065454498 4.62924
4.6100798 -0.02802 4.6242599
4.6086702 -0.024514999 4.62643
4.5900002 -0.1875 4.6393399
3.9511399 -0.93970001 4.8256102
3.96767 -0.94028097 4.8268299
4.49086 -1.03239 4.7184801
4.3162799 -0.982548 4.83323
4.47193 -0.96237397 4.8411698
4.5083098 -0.88939202 4.70608
4.5208802 -0.77296001 4.6956201
4.61657 0.0175083 4.6198201
4.6103902 -0.00219209 4.6265402
4.48913 -0.72491401 4.8305898
4.6104598 -0.049296401 4.6263499
4.5936699 -0.15387 4.6365499
4.6108799 -0.070764102 4.62848
4.5568399 -0.473234 4.6645799
4.5072198 -0.55124599 4.81037
4.4814901 -0.52815098 4.8037701
4.55198 -0.48219499 4.6686301
4.6364698 0.206966 4.6073699
4.5818501 -0.27297199 4.64568
3.9489999 -0.936791 4.8267899
4.6279001 0.123408 4.6121998
4.2389398 -0.98447001 4.8387198
4.5725398 -0.32473001 4.6522799
4.53372 -0.315869 4.7845101
4.62116 0.073591702 4.6165199
4.4427299 -0.93560803 4.8586102
4.4801798 -0.90424597 4.8331199
4.48102 -0.89329702 4.8330498
4.5160599 -0.81528002 4.6985898
4.6141 0.0071934401 4.6219001
4.45439 -0.77074403 4.8327398
4.60748 -0.043919802 4.6266699
4.5521002 -0.49463001 4.66993
4.6012998 -0.087304004 4.6314201
4.6002898 -0.093192801 4.6307702
4.3321099 -1.01046 4.7359099
4.49507 -0.99423701 4.7149301
3.86971 -0.92780101 4.8248401
3.8603401 -0.94511902 4.8515301
3.87766 -0.94640601 4.8487301
3.90239 -0.92995602 4.8256898
3.90958 -0.93189198 4.8248
3.9884601 -0.93439001 4.7936201
3.9314401 -0.93378401 4.8239498
4.0118599 -0.927562 4.7819901
3.9509699 -0.936212 4.8248501
3.9634299 -0.93788701 4.8247199
4.1196899 -0.963018 4.8332901
4.2070198 -0.97027898 4.8316798
4.27881 -0.98193401 4.8360901
4.5064301 -0.91840202 4.7076702
4.46944 -0.97581601 4.8415999
4.5061202 -0.89167601 4.7091999
4.43786 -0.94467199 4.8573399
4.5113802 -0.85544503 4.7028298
4.4672999 -0.92861003 4.8520002
4.4682999 -0.91450202 4.8517699
4.4381499 -0.88954002 4.8419099
4.48037 -0.88661301 4.8347101
4.4778199 -0.80091399 4.6981001
4.4558501 -0.733208 4.8233299
4.5519099 -0.497199 4.6689401
4.49931 -0.72012502 4.81813
4.4855599 -0.512622 4.8115201
4.54667 -0.36788899 4.7880802
4.5087299 -0.64082599 4.8105998
4.4806099 -0.53074098 4.8052602
4.50072 -0.62182897 4.8202701
4.5118499 -0.605874 4.8048902
4.5060902 -0.581043 4.8174
4.51755 -0.57435799 4.8101501
4.5057998 -0.56683302 4.81499
4.54808 -0.53498203 4.6722002
4.4795899 -0.54875702 4.8126402
4.5488901 -0.52345097 4.67208
4.5718398 -0.329763 4.65203
4.5725598 -0.31855699 4.6518402
4.6319199 0.144079 4.6094098
4.5351901 -0.29838699 4.7849398
4.5447502 -0.564336 4.6752801
4.5643501 -0.414244 4.6592798
4.62994 0.142249 4.6110101
4.6262002 0.116516 4.61274
4.5656099 -0.37444201 4.6569901
4.5984802 0.17728899 4.7251601
4.5633502 -0.36575201 4.6575499
4.5092201 -0.328861 4.7949901
4.4753199 -0.59653598 4.8185401
4.57968 -0.26054099 4.64679
4.58289 -0.235948 4.64428
4.5918798 -0.21995801 4.6414499
4.5932002 -0.157386 4.63729
4.6104202 -0.016839501 4.6252298
4.6195798 0.057822801 4.6177802
4.6445498 0.202369 4.6038899
4.6329398 0.17218199 4.60815
4.6227498 0.078322902 4.61584
4.6187201 0.0643031 4.6199498
4.6174998 0.043087199 4.62044
4.6167002 0.034889702 4.6202598
4.6185999 0.0086532598 4.6209302
4.3768101 -0.99741697 4.8400898
4.3699398 -0.98476797 4.8305202
4.5041599 -0.91893798 4.7094598
4.6041198 -0.063930601 4.6298399
4.5081801 -0.894216 4.7074599
4.4623399 -0.97293597 4.8565302
4.5082698 -0.87781501 4.7058101
4.4806499 -0.88319701 4.8347301
4.4454298 -0.853921 4.8431902
4.4758801 -0.85455 4.8359299
4.5914001 -0.16498201 4.6398101
4.5927 -0.170974 4.6379399
4.48002 -0.82200599 4.8456001
4.5032501 -0.68504101 4.8136601
4.49615 -0.65269601 4.8231802
4.4711599 -0.63083899 4.8227601
4.5617299 -0.41978601 4.66079
4.61938 0.039884798 4.6191101
4.6142702 0.0198154 4.6225801
4.6195302 -0.00108914 4.6227899
4.6070099 -0.040466402 4.6272402
4.6064501 -0.056407601 4.6280098
4.5550199 -0.468261 4.6656899
4.4412699 -0.91382498 4.8517098
4.5223498 -0.532511 4.8001699
4.5155201 -0.818232 4.6996999
4.51651 -0.809645 4.70013
4.4447598 -0.849159 4.8411698
4.4732299 -0.85126698 4.8376198
4.4800301 -0.80306 4.8429098
4.4867501 -0.77756298 4.8375001
4.5269299 -0.71999401 4.6905799
4.5896201 -0.189785 4.6399999
4.5099101 -0.30615899 4.7930899
4.5405598 -0.25984299 4.7827101
4.6907301 0.57604802 4.56178
3.9878099 -0.95877397 4.84694
3.8136699 -0.97959 4.7244902
3.8141201 -0.97593898 4.72789
4.02985 -0.955742 4.8344998
4.04526 -0.95802802 4.8385801
4.0851698 -0.959117 4.8389401
3.91238 -0.94405401 4.8385201
4.0669198 -0.96950197 4.8487701
4.0900202 -0.96773899 4.8393402
4.0895901 -0.95791602 4.8283801
4.6877899 0.522618 4.57832
4.6757202 0.435303 4.5816998
3.86798 -0.93432403 4.8298101
4.5790601 -0.448899 4.6588898
4.6723399 0.41602299 4.5758901
4.6680698 0.38522601 4.5833001
4.66819 0.367163 4.5789599
4.5870299 -0.34304401 4.6454201
4.6643801 0.34839499 4.5853601
4.6628299 0.32380199 4.5809302
4.6592498 0.311102 4.5868101
4.4937 -0.81567103 4.8396301
4.49295 -0.79629099 4.8368902
4.5342002 -0.80843902 4.6812201
4.5148602 -0.72954702 4.8174
4.54773 -0.65812701 4.6719899
4.4828601 -0.89379698 4.8424201
4.4867501 -0.85725701 4.8404198
3.9141901 -0.92560399 4.80584
4.23102 -0.97403902 4.82621
4.65732 0.292348 4.5816202
4.0648699 -0.989537 4.6957102
4.0641599 -0.98391497 4.6990399
4.13765 -0.98951697 4.69171
4.5021701 -0.71757501 4.8330698
4.09308 -0.98655802 4.6957502
4.1076999 -0.98775202 4.6914201
4.49226 -0.860017 4.8378901
4.5989699 -0.200414 4.63626
4.5631199 -0.49636701 4.6624599
4.2901902 -0.98470002 4.8304501
4.6374602 0.1201 4.60254
4.5766101 -0.39804101 4.65242
4.59518 -0.23131201 4.6376801
4.6275001 0.046066798 4.6117401
4.1700602 -0.99708998 4.6982298
4.5555701 -0.57081598 4.6666198
4.6142001 -0.064820804 4.6231699
4.6105099 -0.095703401 4.62463
4.5307798 -0.56439197 4.7951198
4.5043201 -1.00291 4.7059002
4.64185 0.169223 4.5995302
4.5335698 -0.53375798 4.79318
4.5423298 -0.66259402 4.6760702
4.5289898 -0.77985901 4.6881599
4.23281 -1.0087 4.7020898
4.6224499 -0.0093522202 4.6150899
4.6471601 0.21249101 4.5975499
4.63902 0.138514 4.6013699
4.3547301 -1.02043 4.70186
4.2776399 -1.01131 4.6967101
4.3152199 -1.01862 4.7023501
4.4980001 -1.04526 4.7135
4.4102402 -1.03082 4.7035899
4.5247402 -0.82996303 4.69138
4.5095701 -0.95967501 4.7038999
4.5100698 -0.953372 4.7034798
4.5672102 -0.46525699 4.6673899
4.4745202 -0.94707698 4.8498602
4.48172 -0.95835501 4.8309698
4.5080099 -0.58241802 4.67518
4.48595 -0.921812 4.8291702
4.4936299 -0.848391 4.8250699
4.4979601 -0.96751302 4.7149301
4.49962 -0.95038098 4.7111201
4.6293802 0.16842601 4.6100001
4.6305099 0.155037 4.6088099
4.5037699 -0.91867799 4.7098598
3.9960301 -0.94337499 4.7969599
4.0548201 -0.93765002 4.78932
3.98998 -0.94616097 4.8288498
4.17242 -0.97063798 4.8340402
4.2305598 -0.97747999 4.8330798
4.4734201 -0.85191703 4.7057099
4.4342699 -0.92113501 4.8443899
4.5120802 -0.83404702 4.7009301
4.4691401 -0.89272398 4.8466001
4.4383202 -0.87597603 4.8400302
4.46983 -0.87570101 4.8460698
4.5179501 -0.78698802 4.6963801
4.4754801 -0.85618699 4.8338399
4.4716601 -0.86032999 4.84799
4.4563999 -0.72250402 4.8231201
4.45719 -0.70624602 4.8228598
4.5329399 -0.65739 4.6848998
4.4914799 -0.69657803 4.8267999
4.4607401 -0.686409 4.8207102
4.4914398 -0.68966299 4.8259902
4.5359101 -0.63474399 4.6828899
4.5034399 -0.67360198 4.8137398
4.4646001 -0.65344101 4.81775
4.5055099 -0.65268499 4.80898
4.5383301 -0.61184901 4.68012
4.4681301 -0.62041497 4.8141499
4.5466099 -0.57841003 4.6760702
4.5436201 -0.57243001 4.6757698
4.5460601 -0.55838901 4.67378
4.5141902 -0.58804601 4.8054199
4.5138602 -0.57791799 4.8038502
4.5443602 -0.53065997 4.6735501
4.5419798 -0.260304 4.7854099
4.5571299 -0.45098001 4.6639099
4.5918298 -0.15359899 4.6363301
4.5570698 -0.442756 4.6632199
4.52068 -0.42718101 4.8009
4.5692101 -0.413665 4.66082
4.5621901 -0.41035199 4.6594601
4.56777 -0.38365301 4.6567998
4.5268798 -0.36985701 4.79388
4.52707 -0.35399801 4.7926698
4.5311399 -0.351042 4.7933998
4.5345998 -0.32274601 4.7906299
4.57301 -0.31174701 4.6504598
4.5504498 -0.288028 4.6672602
4.5760899 -0.28540501 4.6486201
4.5221901 -0.73252201 4.6935
4.5785599 -0.26451099 4.6464
4.5901799 -0.222968 4.6428099
4.57307 -0.31705201 4.6509199
4.58775 -0.16837201 4.63975
4.6249099 0.125799 4.6110401
4.5919199 -0.148445 4.6360898
4.5971098 -0.115523 4.6328201
4.4992199 -0.612921 4.81919
4.6027899 -0.069953904 4.6293302
4.61164 -0.049529199 4.6277499
4.6106 -0.0325731 4.6254301
4.61058 0.0146583 4.6222801
4.5237298 -0.78469002 4.6954198
4.6150198 0.033745602 4.6192598
4.62886 0.1487 4.6106701
4.6310601 0.126607 4.6112099
4.01546 -0.93858898 4.7857099
4.1073198 -0.960841 4.8336401
4.6202502 0.0729011 4.61588
4.46841 -0.96832198 4.8393402
4.5088501 -0.87255299 4.7040601
4.61058 -0.0126333 4.6240802
4.6079202 -0.027545599 4.6254702
4.6076598 -0.0326933 4.6255102
4.4773402 -0.81458402 4.7036099
4.43786 -0.882379 4.8397999
4.5998101 -0.090236798 4.6307302
4.52068 -0.76936901 4.6943302
4.4517398 -0.75837499 4.8248501
4.5545998 -0.472839 4.6662798
4.5297799 -0.68288702 4.6868901
4.5894899 -0.176507 4.6387501
4.5871601 -0.1892 4.6404901
4.49576 -0.66344303 4.8246398
4.5868502 -0.199636 4.6408401
4.5149598 -0.813375 4.6987901
4.4992299 -0.62983501 4.8209701
4.4697199 -0.60827601 4.8159699
4.55408 -0.235286 4.6598301
4.5440998 -0.55015898 4.6747098
4.4787302 -0.53265899 4.8049402
4.5521498 -0.49208799 4.6685901
4.6299701 0.14252301 4.6090002
4.4762702 -0.90624201 4.8339
4.6228099 0.094765298 4.6140099
4.6083002 -0.0048894701 4.6244102
4.56493 -0.37271401 4.65628
4.5223999 -0.53536099 4.7962399
4.5676799 -0.362129 4.6551099
4.5493202 -0.52243298 4.6712499
4.1993699 -0.96286601 4.8277998
4.5032201 -0.90924799 4.7066302
4.2240701 -0.97076899 4.8310499
4.3924499 -0.98838598 4.8269501
4.4602299 -0.87527698 4.6932101
4.5064802 -0.890549 4.7048202
4.50493 -0.88333899 4.7054601
4.4684801 -0.98082602 4.8390098
4.50598 -0.86786801 4.7048202
4.5067601 -0.85769099 4.7045498
3.9042001 -0.93390602 4.8313398
3.9552801 -0.939821 4.83077
4.0438399 -0.95032603 4.83008
4.5680599 -0.34204599 4.65307
4.6252499 0.074496597 4.6167798
4.4716902 -0.93431002 4.8368602
4.4324198 -0.93034101 4.8460598
4.4754601 -0.83135402 4.7046299
4.4769101 -0.8933 4.8334098
4.4777899 -0.79712701 4.6983399
4.5156498 -0.80107099 4.6976099
4.4780698 -0.88156801 4.8336601
4.48241 -0.84222198 4.8422699
4.5239 -0.72577602 4.6911998
4.5320501 -0.70016599 4.6880999
4.48457 -0.72029299 4.8295999
4.4584799 -0.69543803 4.8207302
4.4868102 -0.69650501 4.8298302
4.4602599 -0.681279 4.82199
4.4647198 -0.64737701 4.81813
4.4975801 -0.63706303 4.8214502
4.50916 -0.63202 4.8126898
4.4685102 -0.61631602 4.8133502
4.5069098 -0.56861198 4.68086
4.5452099 -0.54059201 4.6732602
4.47401 -0.56821001 4.8090801
4.4755201 -0.55374199 4.8095899
4.6252098 0.120282 4.6108198
4.55477 -0.46684799 4.66572
4.5556502 -0.44735199 4.6642699
4.5563402 -0.43032601 4.6628699
4.6173902 0.063549802 4.6170902
4.5613799 -0.40634799 4.6595502
4.5620198 -0.396763 4.6591601
4.62644 0.142116 4.6096702
4.6259799 0.13547 4.60989
4.5490298 -0.228301 4.6526098
4.58006 -0.232163 4.64464
4.58285 -0.218454 4.64327
4.5515199 -0.209043 4.6537499
4.6040702 -0.138556 4.6385498
4.6033802 -0.116479 4.6346402
4.60392 -0.061071299 4.6279898
4.6022301 -0.058336198 4.6286001
4.6031098 -0.042530201 4.6277199
4.6138201 0.035178699 4.6191301
4.6029401 -0.092336401 4.6307902
4.5190401 -0.77195698 4.6944699
4.53336 -0.65871501 4.68399
4.5799398 -0.30257201 4.65064
4.2472301 -1.0087301 4.7053499
4.2643099 -1.0122401 4.7070699
4.2705402 -1.01263 4.7061801
4.3076401 -1.02105 4.7055998
4.31635 -1.01788 4.7072601
4.3229299 -1.01803 4.70608
4.3681898 -1.02373 4.7063498
4.3565798 -1.02328 4.70647
4.38059 -1.02525 4.7072401
4.3154402 -0.976587 4.70294
4.4113102 -1.02897 4.7049799
4.4883199 -1.0498199 4.7153401
4.4886298 -1.0411299 4.7198501
4.4642601 -1.0374399 4.7070498
4.6388602 0.208046 4.6045499
4.4921298 -1.0204901 4.7209301
4.5233002 -0.54053497 4.7997398
4.3673401 -0.993348 4.8376498
4.4932899 -1.02282 4.7171998
4.5472298 -0.40875399 4.68681
4.44559 -1.00974 4.8467398
4.29773 -1.00534 4.8604398
4.50137 -0.96299797 4.7126098
4.5241399 -0.39625299 4.7879601
4.5120401 -0.91230297 4.7069898
4.6327901 0.15805399 4.6085701
4.5089798 -0.66170502 4.8138599
4.63837 0.160731 4.60534
4.50524 -0.69172102 4.8140101
4.1443701 -0.96594203 4.83074
4.1479998 -0.96634901 4.8328199
4.1915598 -0.97039402 4.8330498
4.19416 -0.97102302 4.8315101
4.2147398 -0.97562402 4.83494
4.24576 -0.972552 4.8340101
4.3605199 -0.97656 4.81528
4.19275 -0.96955103 4.8359699
4.5089102 -0.89936298 4.7069502
4.0981302 -0.96074802 4.8294401
4.3158998 -0.98171902 4.829
4.3112102 -0.98709798 4.8362298
4.2543998 -0.97561502 4.8304901
3.99705 -0.94498903 4.8280301
4.0151801 -0.95053703 4.8259902
4.01123 -0.94602799 4.8278298
4.0430398 -0.95059103 4.8283501
4.05512 -0.95527798 4.8274298
4.0532699 -0.951832 4.8288002
4.0579 -0.95395201 4.8272901
4.6455798 0.141762 4.6143498
4.1430802 -0.96542102 4.8361502
4.5419102 -0.42798001 4.6834698
4.43613 -0.93392402 4.84515
4.4373398 -0.92208099 4.8446398
4.4786801 -0.913629 4.8361602
4.51688 -0.82152098 4.6998901
4.4949899 -0.68310499 4.8238101
4.6305299 0.135059 4.6090398
4.5031099 -0.61416799 4.8162999
4.5154901 -0.84773803 4.7019501
4.5486102 -0.385589 4.6801701
4.5395899 -0.29431099 4.7851901
4.0962 -0.95728302 4.8310099
4.5976 -0.12891901 4.6335502
4.5915298 -0.19872101 4.64042
4.5852699 -0.25143901 4.6450701
4.58601 -0.235816 4.6438799
4.59231 -0.17124701 4.6378198
4.6147799 0.00151473 4.6219501
4.59589 -0.174309 4.6373601
4.61485 -0.0126113 4.6236901
4.5967002 -0.11921 4.63589
4.5924101 -0.174237 4.6382999
4.6052999 -0.234412 4.6542001
4.4716001 -0.62459701 4.8178301
4.5120602 -0.330461 4.7958298
4.5734801 -0.33338201 4.6523399
4.5559602 -0.496903 4.6690698
4.59446 -0.146661 4.6369901
4.5485301 -0.567972 4.6752701
4.55551 -0.50709403 4.66992
4.5735102 -0.34951001 4.6544199
4.6297302 0.129136 4.6089501
4.48704 -0.88593 4.82971
4.5795102 -0.29220799 4.6487999
4.44455 -0.85718399 4.8359299
4.4769402 -0.85564101 4.83637
4.4816899 -0.82405198 4.8439999
4.5221701 -0.78533 4.6956601
4.6150799 0.018537501 4.6202302
4.5155902 -0.289161 4.7870998
4.6090698 -0.04532 4.6261802
4.51091 -0.33745801 4.7954702
4.4575601 -0.771788 4.8253999
4.5356598 -0.67887598 4.6859598
4.5968099 -0.152996 4.6356902
4.4575701 -0.74084902 4.8260298
4.5296798 -0.71722901 4.68961
4.62465 0.084329203 4.6134
4.6246099 0.087028198 4.61304
4.5482798 -0.529998 4.67487
4.46557 -0.68016899 4.8196001
4.57938 -0.29855001 4.6494498
4.56145 -0.45710701 4.6649399
4.5369201 -0.65391999 4.68399
4.4977298 -0.66052502 4.8235698
4.6472502 0.132 4.6170402
4.5422702 -0.61945301 4.6802402
4.5460501 -0.61678803 4.6790299
4.5964599 -0.201609 4.6412702
4.5432601 -0.59483403 4.67805
4.5469699 -0.59569597 4.6772399
4.4877501 -0.86466998 4.82691
4.5047498 -0.59920901 4.8158898
4.5440698 -0.58453298 4.6775599
4.6252699 0.054426301 4.6174798
4.5671501 -0.40779901 4.6598701
4.5467 -0.55739498 4.6767998
4.5489302 -0.55756098 4.6743398
4.5681801 -0.38155699 4.6575999
4.5619898 -0.440377 4.6633601
4.4656901 -0.88986403 4.8468199
4.62148 0.113983 4.6110201
3.98316 -0.94461298 4.8326101
4.5888901 -0.16011199 4.63553
4.4674501 -0.764696 4.8367701
4.45575 -0.72396201 4.8233099
4.4970398 -0.62504101 4.8176699
4.5068698 -0.55623001 4.67838
4.5274501 -0.36156499 4.6581502
4.5837898 -0.361249 4.6628499
4.5438199 -0.219632 4.6444201
4.5457802 -0.195226 4.6398101
4.5858002 -0.179533 4.6403198
4.6057601 -0.0110632 4.6237602
4.6048198 -0.0253396 4.6244102
4.5391202 -0.71470702 4.6945701
4.45155 -0.74943298 4.8253498
4.45368 -0.73157901 4.8274298
4.5005298 -0.716281 4.8266201
4.6058402 -0.034043401 4.6241698
4.4644799 -0.64121801 4.8205099
4.5406098 -0.56984103 4.6760998
4.5457001 -0.53143501 4.6710801
4.4757099 -0.549775 4.80654
4.5491099 -0.50278699 4.6686301
4.6010399 -0.0614345 4.6270199
4.62637 -0.077755399 4.6420002
4.5980601 -0.085396901 4.6291099
4.5571198 -0.42429399 4.6624198
4.54809 -0.177011 4.6370902
4.5839801 -0.298931 4.6530099
4.57408 -0.29000601 4.6483598
4.5841298 -0.288344 4.6515398
4.6052699 -0.13687199 4.63943
4.57862 -0.26725501 4.6454902
4.54041 -0.25582299 4.6440701
4.53618 -0.247245 4.6421499
4.5857401 -0.19680101 4.6394601
4.5843601 -0.19842701 4.6408601
4.62573 0.059889901 4.6199398
4.6096401 0.0151888 4.6195598
4.6065798 -0.0199531 4.62321
4.4770899 -0.81484097 4.83746
4.5861001 -0.188535 4.6387601
4.5262399 -0.694125 4.6866202
4.45473 -0.72097802 4.8280001
4.4871802 -0.71592301 4.8267698
4.5458598 -0.63999701 4.6862602
4.4883699 -0.69618702 4.8253999
4.5461202 -0.62115598 4.6834898
4.4622598 -0.665362 4.81985
4.4925599 -0.66480201 4.8220801
4.5404401 -0.59586501 4.67625
4.5416899 -0.57134497 4.6743598
4.58253 -0.223588 4.6417098
4.4724498 -0.57552302 4.8113899
4.5873098 -0.25268301 4.6477799
4.59479 -0.119548 4.63235
4.5705299 -0.32159501 4.6508698
4.6177402 0.101673 4.6129298
4.6171498 0.072306298 4.6141601
4.61726 0.075940698 4.6136899
4.5804501 -0.229716 4.6423502
4.5269699 -0.68260098 4.6844602
4.5310998 -0.64542502 4.68153
4.4864402 -0.71876502 4.8232999
4.5317302 -0.637366 4.6812
4.4576101 -0.69025803 4.8250899
4.4872098 -0.68093401 4.8228598
4.4932599 -0.64810401 4.8173599
4.4937501 -0.637429 4.8159099
4.5421801 -0.54870898 4.67312
4.5705099 -0.45711499 4.6712499
4.5710101 -0.43861201 4.66857
4.5571699 -0.43290401 4.6615
4.5261798 -0.369133 4.6565199
4.5755601 -0.36988601 4.6603899
4.52707 -0.35299599 4.6550102
4.5674 -0.33729801 4.6519799
4.5722599 -0.31380999 4.6498399
4.5728502 -0.301985 4.6486502
4.5353599 -0.29721501 4.6489902
4.5776 -0.25103301 4.6444502
4.57827 -0.243137 4.6442199
4.5390201 -0.238272 4.6401801
4.6122198 -0.107584 4.6388898
4.61657 -0.0338623 4.6298199
4.61134 0.0332755 4.6171398
4.6114402 0.036918201 4.6166401
4.61619 0.058912501 4.6149001
4.5251999 -0.71154398 4.6867399
4.5244799 -0.69531697 4.6858101
4.6082101 0.00191447 4.6204901
4.5304799 -0.655738 4.6823702
4.4878001 -0.70084602 4.8225799
4.5015202 -0.65505701 4.8006701
4.6136899 -0.0565028 4.632
4.4643798 -0.643246 4.8169298
4.46977 -0.59601998 4.8127999
4.59694 -0.084069498 4.6288199
4.5508299 -0.483271 4.6662102
4.5518098 -0.46605 4.6686201
4.5237899 -0.38120499 4.65798
4.5884199 -0.172206 4.63626
4.5866098 -0.177679 4.63726
4.5465899 -0.181382 4.6367302
4.5271502 -0.34692499 4.65382
4.5760298 -0.34981701 4.6573501
4.5672102 -0.34126201 4.6524
4.6061502 -0.0088627301 4.6219301
4.4884901 -0.69335902 4.82266
4.5439401 -0.217967 4.6428599
4.5405002 -0.56865501 4.6736898
4.4979901 -0.61171103 4.8144798
4.5447502 -0.53007698 4.6708002
4.5490899 -0.509404 4.6679101
4.55404 -0.45701301 4.6637101
4.5836101 -0.202654 4.63975
4.5349398 -0.315171 4.65202
4.56425 -0.36701101 4.65523
4.4590802 -0.97435999 4.8572798
4.4733 -0.91071397 4.83564
4.6224799 0.114698 4.6103902
3.99016 -0.94323802 4.8306999
4.6315598 0.105597 4.61552
4.5086999 -0.619959 4.80686
4.6437101 0.27151999 4.7830701
4.6204901 0.107206 4.61133
4.473 -0.85544002 4.8319402
4.5268502 -0.69773602 4.6863499
4.5272799 -0.68548399 4.6854701
3.9609201 -0.94370699 4.8297701
4.4762802 -0.82082301 4.8415098
4.4790101 -0.79392701 4.8358402
4.5300698 -0.66583401 4.68363
4.5603399 -0.41741601 4.6601
4.55653 -0.42193699 4.66184
4.55757 -0.44494301 4.6627102
4.5915899 -0.14150999 4.6343298
4.58922 -0.160413 4.63624
4.5467601 -0.187723 4.6373
4.59657 -0.22198901 4.6482
4.4664502 -0.63890398 4.8182702
4.5889502 -0.198834 4.6403799
4.5390201 -0.58593601 4.6765199
4.5608401 -0.406019 4.6594901
4.5929298 -0.109446 4.6326499
4.5405302 -0.247418 4.6458902
4.57937 -0.25252301 4.6454601
4.54634 -0.201847 4.6423202
4.5713501 -0.31396699 4.6506701
4.5559602 -0.43569499 4.6626201
4.4723601 -0.58056802 4.81498
4.5472598 -0.51939398 4.6701498
4.5967598 -0.091357604 4.6298199
4.5921302 -0.130758 4.6339102
4.6350398 0.057477798 4.62573
4.61062 0.0259856 4.6181402
4.5992599 -0.19807801 4.6461802
4.5441198 -0.225453 4.6454501
4.6110101 -0.0177272 4.6236701
4.5891099 -0.166807 4.6368198
4.5575299 -0.475436 4.6665301
4.6398501 -0.0122395 4.6401901
4.6064501 -0.0116394 4.6224599
4.5760198 -0.28765199 4.6478701
4.4861999 -0.72487301 4.8264198
4.6105299 0.0079904404 4.6200299
4.4577999 -0.70420498 4.8234401
4.4870501 -0.69734699 4.8234301
4.4911399 -0.67702699 4.8227501
4.46351 -0.65435803 4.8211999
4.4676299 -0.61537302 4.8167701
4.5417099 -0.56436503 4.6743498
4.5626798 -0.54445797 4.68014
4.4755101 -0.55967402 4.8116698
4.59407 -0.133112 4.6338601
4.4788699 -0.53314501 4.8078799
4.5527101 -0.47499099 4.6659698
4.5528998 -0.47036099 4.6657
4.58672 -0.18587101 4.63873
4.5992098 -0.074831203 4.6283998
4.5462098 -0.21049801 4.64326
4.5633302 -0.38558701 4.65734
4.5589299 -0.52879 4.6757102
4.5685701 -0.340662 4.6530399
4.5964899 -0.103932 4.6308799
4.5799499 -0.32337901 4.6550102
4.6105099 -0.0040298798 4.6213698
4.5819302 -0.22434901 4.6426501
4.5501299 -0.493626 4.66784
4.53794 -0.262656 4.6472402
4.5748801 -0.28076899 4.6487598
4.6014099 -0.056506801 4.62639
4.5380702 -0.62717402 4.6803002
4.4913702 -0.66159302 4.8204799
4.5389099 -0.58830601 4.67664
4.5935001 -0.148083 4.6347299
4.5372801 -0.58379 4.6772399
4.4927201 -0.61961001 4.8161201
4.58424 -0.211527 4.6413102
4.6013398 -0.070878297 4.6279402
4.6038299 -0.0401645 4.6249599
4.5938401 -0.16271 4.6369801
4.5759301 -0.29871601 4.6490698
4.5794001 -0.25033599 4.6452398
4.5769401 -0.267735 4.6469202
4.5580502 -0.43579501 4.6623602
4.5472102 -0.52176499 4.6703801
4.5328999 -0.62886298 4.6788402
4.5376401 -0.58151698 4.6752901
4.55725 -0.42112699 4.66082
4.5735602 -0.28403601 4.6465602
4.5383101 -0.244094 4.6429801
4.4700298 -0.58298302 4.81425
4.5006199 -0.57351297 4.8036098
4.47225 -0.565521 4.81007
4.5475402 -0.502514 4.6683798
4.4733 -0.54759198 4.8106198
4.4741101 -0.53660703 4.8119202
4.5485802 -0.485594 4.66817
4.5257101 -0.346232 4.7813702
4.5314898 -0.33696899 4.6535001
4.5667701 -0.337632 4.6526499
4.5306401 -0.30226299 4.7757401
4.60425 -0.0215158 4.6213398
4.5759501 -0.260602 4.6450701
4.5783401 -0.237193 4.64358
4.5883999 -0.15087999 4.6336699
4.5921502 -0.121643 4.6313
4.5940299 -0.097505197 4.6317
4.5957899 -0.086314902 4.6277299
4.61445 -0.023559 4.6268702
4.6080999 0.021122299 4.6171999
4.6066699 0.0059229899 4.61938
4.6072602 0.00149715 4.6184902
4.6073899 0.00014922699 4.61902
4.6043501 -0.0105614 4.6197801
4.5935102 -0.113912 4.6300802
4.4690599 -0.59595901 4.8126302
4.5452199 -0.52146298 4.6693802
4.5851798 -0.181494 4.6375299
4.5498099 -0.472278 4.6691198
4.4780598 -0.51143903 4.8038502
4.5696998 -0.31749099 4.64955
4.5795102 -0.23084299 4.6420298
4.6065998 0.0150576 4.6177502
4.5938902 -0.105612 4.6296
4.5889802 -0.272277 4.6521301
4.4738998 -0.55462402 4.80477
4.5799098 -0.224084 4.64186
4.5788498 -0.22543 4.6428199
4.55088 -0.486146 4.6697102
4.5588398 -0.42438301 4.6637602
4.5597901 -0.41603601 4.6668401
4.53092 -0.346596 4.6560001
4.53301 -0.334052 4.6581502
4.5690398 -0.32453501 4.65413
4.53264 -0.32151499 4.6519299
4.5696602 -0.31693599 4.6532202
4.5352998 -0.29629701 4.651
4.57161 -0.298906 4.6490798
4.5398598 -0.23815 4.6434698
4.5777001 -0.241429 4.6427398
4.5402002 -0.23146699 4.63764
4.5830598 -0.20684899 4.63901
4.5831399 -0.19435801 4.6381898
4.5847502 -0.17746601 4.6367998
4.5897102 -0.133459 4.63199
4.5986099 -0.060343299 4.62465
4.6005101 -0.0515748 4.62357
4.60887 0.029695099 4.6152101
4.60497 -0.0034646899 4.6191902
4.6020002 -0.024543799 4.6215801
4.6146898 -0.099473298 4.63903
4.5945601 -0.104993 4.6289301
4.58675 -0.162857 4.6339898
4.5865502 -0.16584399 4.63448
4.5845399 -0.17220201 4.6376901
4.5531001 -0.46862799 4.6698098
4.5810699 -0.215792 4.6399202
4.5570898 -0.44000199 4.6676302
4.56778 -0.34125501 4.6564298
4.5666699 -0.35187 4.6570401
4.5778599 -0.252224 4.6436501
4.5651398 -0.36412099 4.6603599
4.5914302 -0.12621 4.6309199
4.5720701 -0.29434699 4.6487899
4.58075 -0.209327 4.64007
4.5801401 -0.22642601 4.6410298
4.5768399 -0.25202399 4.6440401
4.4730401 -0.55696797 4.8049502
4.4734802 -0.54348201 4.8120098
4.5553999 -0.46159899 4.6740398
4.5584798 -0.44665799 4.677
4.5630598 -0.39155301 4.6639299
4.5685902 -0.331983 4.6561999
4.6103301 0.048502199 4.6135898
4.5208001 -0.40345201 4.6538301
4.6080699 0.0267462 4.6155901
4.5721302 -0.288508 4.64886
4.57445 -0.27546 4.64574
4.5265298 -0.36843401 4.6521502
4.57758 -0.247458 4.6425099
4.5399399 -0.225063 4.6375699
4.5259199 -0.37518701 4.6540599
4.58149 -0.209337 4.6389399
4.5448899 -0.191338 4.6381001
4.58254 -0.198027 4.6387
4.5461302 -0.17391001 4.6319199
4.5890498 -0.144375 4.6315699
4.5893602 -0.130905 4.6311302
4.5932698 -0.091867499 4.6274199
4.5983601 -0.072392702 4.6255002
4.6121001 0.060541201 4.6122398
4.6021399 -0.041411102 4.6227102
4.5982499 -0.066254899 4.6249199
4.5954599 -0.077492602 4.6259899
4.5953202 -0.085076898 4.6266098
4.59233 -0.103835 4.6281199
4.5912199 -0.118274 4.6296701
4.6044302 -0.0060880301 4.6195798
4.6039801 -0.0090570999 4.6198702
4.60251 -0.024577999 4.6209002
4.5922699 -0.103758 4.6308298
4.5876698 -0.148111 4.6325402
4.5294199 -0.351322 4.6515999
4.5713501 -0.30234599 4.64921
4.5734 -0.28323501 4.6461902
4.5739899 -0.27517501 4.6473598
4.57511 -0.26143 4.6449599
4.6129699 0.070161402 4.6111999
4.5845699 -0.181233 4.6384602
4.5847001 -0.179594 4.6358199
4.5876498 -0.148298 4.6331
4.6114998 0.066632397 4.6118698
4.61025 0.053412002 4.6132302
4.5422702 -0.210601 4.64152
4.54322 -0.20842101 4.6402001
4.6082702 0.032213502 4.6145301
4.54637 -0.184532 4.6413698
4.6072202 0.020630101 4.6156001
4.5321999 -0.31966099 4.65066
4.5914502 -0.115367 4.62956
4.5954299 -0.082654499 4.6266699
4.59619 -0.0776067 4.6258898
4.5972199 -0.066606 4.6272502
4.5980301 -0.0605704 4.6237602
4.5988002 -0.056526199 4.6235399
4.60256 -0.0341773 4.6210399
4.6174798 -0.029725101 4.6296
4.6052198 -0.0021426999 4.6178298
4.6024799 -0.021503801 4.6212301
4.60149 -0.0315875 4.6217198
4.60114 -0.043259799 4.6223202
4.5996199 -0.044432901 4.6238599
4.5988102 -0.0520216 4.6235099
4.5981698 -0.056998201 4.6245599
4.5454702 -0.195023 4.6419101
4.5415802 -0.214976 4.6391702
4.5192699 -0.48175699 4.8315101
4.6304302 0.050551601 4.62429
4.6101799 0.045463402 4.6132698
4.6099501 0.040708799 4.6132498
4.5249 -0.38143799 4.65942
4.52599 -0.37415799 4.6598101
4.5268898 -0.36604899 4.6575398
4.6122298 0.065130502 4.6115699
4.5366201 -0.27755401 4.6477699
4.5374899 -0.26915401 4.6452899
4.5387502 -0.258663 4.64258
4.6085701 0.034538802 4.6154399
4.5988302 -0.062753104 4.6238399
4.6013598 -0.041469 4.6219201
4.6012301 -0.036386002 4.6227198
4.6033001 -0.020191601 4.6206999
4.5195298 -0.44129699 4.8071198
4.5237002 -0.41438201 4.8066802
4.5029302 -0.32172301 4.6318998
4.5464301 -0.191149 4.64292
4.5469999 -0.180053 4.6360002
4.54984 -0.178331 4.6464701
4.5475702 -0.185362 4.64255
4.5254202 -0.38976601 4.79773
4.5327902 -0.37927899 4.77283
4.5346799 -0.37304401 4.7734199
4.5262198 -0.388024 4.79877
4.5282798 -0.35945299 4.7995501
4.53124 -0.35021001 4.8011498
4.5337 -0.30526599 4.7871599
4.5338502 -0.30398899 4.7867999
4.5352502 -0.29141101 4.7855501
4.5369201 -0.27740699 4.7841802
4.52982 -0.340886 4.7905798
4.54006 -0.260656 4.7898598
4.5397701 -0.25277701 4.78228
4.5401001 -0.25016201 4.78159
4.54318 -0.222249 4.7785401
3.99874 -0.98590899 4.7055101
3.9946799 -0.97510397 4.6992202
4.0047598 -0.97821498 4.6985698
4.0412402 -0.98192102 4.6971002
4.0542002 -0.98423201 4.6986899
4.06671 -0.985026 4.6985202
4.0812502 -0.98882002 4.7017202
4.1252098 -0.99389201 4.70082
4.1347799 -0.993635 4.6986399
4.1544199 -0.997347 4.7053499
4.1631799 -0.99958801 4.7019801
4.2041702 -1.0054801 4.70293
4.2107701 -1.0058399 4.7005401
4.2423401 -1.01509 4.7026801
4.51196 -0.66098398 4.8109999
4.1914601 -1.0031199 4.7024398
4.52215 -0.57924199 4.8003001
4.5367599 -0.32809699 4.78652
4.5273099 -0.53932798 4.7981901
4.5327401 -0.48201701 4.79322
4.2470002 -1.00967 4.70152
4.2396102 -1.00879 4.7034502
4.2810202 -1.01464 4.7028999
4.3024502 -1.01809 4.7048402
4.3543701 -1.02372 4.7038898
4.3867698 -1.02728 4.70227
4.6485801 0.222205 4.5978899
4.6440902 0.197385 4.5976
4.4570899 -1.0367301 4.7048202
4.41116 -1.02986 4.7028198
4.38904 -1.02624 4.7097902
4.4952002 -1.0332 4.71351
4.4996099 -0.99926102 4.7122898
4.6442399 0.205047 4.6014299
4.5019398 -0.97453803 4.71067
4.5686898 -0.45979199 4.6598001
4.5037799 -0.96014899 4.7101302
4.5612702 -0.48003599 4.6619201
4.5331802 -0.48642901 4.7885799
4.6345901 0.116656 4.6100798
4.1692901 -0.966389 4.83149
4.5689201 -0.43015799 4.6559601
4.5703702 -0.405231 4.6537399
4.6243401 0.049222801 4.6156902
4.5758801 -0.34404901 4.6498299
4.6354799 0.159686 4.6052299
4.6342502 0.146061 4.60603
4.5110102 -0.90696901 4.7027402
4.5880599 -0.24496099 4.6410098
4.27248 -0.978019 4.8246999
4.5513902 -0.55211401 4.66923
4.5988798 -0.152798 4.6321902
4.1701999 -0.97030503 4.8282499
4.5996599 -0.145215 4.6318002
4.2226801 -0.97806603 4.8238802
4.2418599 -0.97462302 4.8253498
4.28756 -0.97975802 4.8262801
4.3213701 -0.98412597 4.82654
4.3279099 -0.98422998 4.82828
4.35637 -0.98790902 4.8256998
4.3912702 -0.995107 4.8231401
4.56354 -0.44209999 4.6585498
3.9870901 -0.94372398 4.8241301
4.0074501 -0.94552398 4.8277502
4.0114799 -0.94663 4.83074
4.0250101 -0.94885701 4.8246002
4.04527 -0.95164001 4.8249102
4.0472002 -0.95069599 4.8281398
4.0861201 -0.95570898 4.8262
4.51791 -0.82547402 4.6968198
4.4790902 -0.92717397 4.8330302
4.54075 -0.282781 4.7878399
4.46876 -0.92598301 4.85393
4.4766998 -0.94688398 4.83425
4.46455 -0.97156298 4.8583202
4.5252099 -0.78443098 4.69138
4.4720502 -0.885741 4.8496199
4.5890298 -0.229424 4.6396899
4.48209 -0.90269101 4.8315401
4.5534101 -0.53060102 4.6678801
4.5654302 -0.42134401 4.6572199
4.6135101 -0.0231275 4.6215801
4.5437298 -0.603845 4.6756201
4.5409002 -0.643924 4.6789198
4.5296302 -0.72873998 4.68713
4.5773602 -0.31993699 4.6477499
4.5332098 -0.69250399 4.6849499
4.6030798 -0.100414 4.62854
4.5702701 -0.363974 4.6532502
4.6255202 0.093507603 4.6108398
4.60782 -0.0488564 4.6254201
4.57867 -0.30002099 4.64609
4.55479 -0.51344901 4.6666298
4.6139998 -0.012456 4.6205602
4.56779 -0.392508 4.65517
4.4575601 -0.75630498 4.8218699
4.5777302 -0.29974601 4.6504502
4.58007 -0.28384599 4.6501498
4.5843401 -0.248354 4.6487298
4.4993901 -0.931602 4.7093801
4.6250901 0.151274 4.6096201
4.6288199 0.17224 4.6059499
4.6326299 0.166657 4.6048799
4.08779 -0.95918101 4.8263001
4.1108899 -0.96169603 4.82482
4.1997199 -0.96690798 4.8281102
4.3554201 -0.98523998 4.8274698
4.5202098 -0.90217203 4.71174
4.4677801 -0.876553 4.7063198
4.4670501 -0.97396398 4.83811
4.5053501 -0.868949 4.70258
4.11691 -0.96232802 4.8315301
4.2087598 -0.96903098 4.8289399
4.2726002 -0.97739297 4.8303599
4.3596802 -0.989043 4.8313498
4.3805599 -0.98952198 4.8278098
4.4186802 -0.98574901 4.8193698
3.9720399 -0.94068497 4.8266101
4.0254502 -0.947577 4.8244801
3.9971199 -0.94253302 4.8274102
4.4586101 -0.96555501 4.8539701
4.4299798 -0.93900102 4.84519
4.4595599 -0.94941097 4.85355
4.5090499 -0.83901 4.70049
4.5136299 -0.835657 4.6985102
4.5429101 -0.218499 4.7804098
3.9856801 -0.94399101 4.82793
4.0823302 -0.95349199 4.8275499
4.4626899 -0.92812699 4.8498602
3.9802401 -0.94037801 4.8281102
4.4353099 -0.87983203 4.8403001
4.47927 -0.89597899 4.8315601
4.4773002 -0.873447 4.8309598
4.4801998 -0.873353 4.8301802
4.4775 -0.87032998 4.8309202
4.4340701 -0.89509499 4.8399301
4.62327 0.129458 4.6094499
4.6449399 0.126325 4.6200199
4.62288 0.117919 4.6100602
3.9440601 -0.93511999 4.8288202
3.9553399 -0.93608701 4.8277798
4.4357901 -0.87019598 4.8398499
4.4381599 -0.85172302 4.8348198
4.6416001 0.11191 4.6205101
4.6198401 0.10624 4.61059
4.6173701 0.090563104 4.6121898
4.6173301 0.077006198 4.61342
3.8799801 -0.93288499 4.8317599
3.88818 -0.93406701 4.8315701
3.9244399 -0.93778402 4.8289599
3.9407499 -0.93872702 4.8303599
3.9208701 -0.93501902 4.83324
4.4760098 -0.80908602 4.8391099
4.4835801 -0.80666101 4.8273902
4.5236702 -0.70976198 4.6868601
4.4498501 -0.76396602 4.8253102
4.5270801 -0.67503601 4.6839499
4.4948702 -0.64290398 4.8200102
4.5569201 -0.47968999 4.6662502
3.9461999 -0.93988103 4.8306899
4.52704 -0.68046403 4.6844902
4.5787001 -0.32837799 4.6543999
4.5774698 -0.313391 4.6512399
4.5359001 -0.64654702 4.6815801
4.4742699 -0.830706 4.8386898
4.5302401 -0.651196 4.6819
4.5455198 -0.52812898 4.6707301
4.5361099 -0.62236202 4.6792402
4.5602899 -0.40803099 4.6596398
4.5395398 -0.57491499 4.6750698
4.5335002 -0.61945301 4.6791301
4.5563798 -0.418143 4.6628199
4.5769601 -0.28365499 4.6475501
4.5715899 -0.30813199 4.6500301
4.5515699 -0.47924301 4.6663499
4.5633998 -0.377812 4.6570601
4.4825101 -0.738518 4.8286099
4.4566498 -0.71200699 4.8250699
4.4830699 -0.71573198 4.8264399
4.53339 -0.62476403 4.6795602
4.4874802 -0.67089999 4.8222699
4.5362701 -0.609025 4.67802
4.5662498 -0.350272 4.6544099
4.5344 -0.60126799 4.6784701
4.5365701 -0.59582603 4.6770201
4.5426698 -0.55418599 4.6733799
4.5549798 -0.43835101 4.6629901
4.56881 -0.330396 4.6521802
4.5623202 -0.51332402 4.67732
4.5570402 -0.45900601 4.6642499
4.4617701 -0.65820903 4.8208599
4.5575099 -0.42825499 4.6616602
4.5606599 -0.400455 4.6593699
4.5429602 -0.54375798 4.6726699
4.5636702 -0.367731 4.6563802
4.5825601 -0.237229 4.6431999
4.4611902 -0.67406702 4.8220301
4.5742302 -0.28846201 4.6479602
4.5770402 -0.26886201 4.6461501
4.5545502 -0.45110399 4.6637402
4.4659801 -0.62030798 4.8172002
4.46911 -0.61085498 4.8155699
4.4660101 -0.62683398 4.8182502
4.4704399 -0.59254003 4.81563
4.4734702 -0.57344401 4.8123598
4.5418301 -0.226658 4.7852101
4.5515099 -0.474033 4.66571
4.5571399 -0.44099799 4.6624999
4.5778899 -0.258908 4.6462698
4.5753798 -0.27599299 4.6482401
4.4773402 -0.53914899 4.80865
4.4774299 -0.52339101 4.8065
4.5991402 -0.098309003 4.6303501
4.5856099 -0.18872 4.6388602
4.5937099 -0.121939 4.6324501
4.5971799 -0.140687 4.6353502
4.5962501 -0.114929 4.6316299
4.5937099 -0.112466 4.6315198
4.5758901 -0.26113701 4.6474099
4.5963898 -0.0959685 4.6299701
4.58813 -0.16721401 4.6365399
4.5890999 -0.13816699 4.6349201
4.5830102 -0.21521901 4.6415901
4.5906901 -0.148192 4.6345501
4.5766602 -0.246259 4.6469402
4.6092701 0.0175991 4.6187301
4.6144199 0.047263 4.61585
4.60917 0.0129474 4.61905
4.6100602 0.0455769 4.6170301
4.6041598 -0.039973099 4.6243901
4.6068602 -0.0052317502 4.62115
4.6108899 0.048767298 4.6145501
4.6149402 0.029415799 4.6181798
4.6123199 0.0657686 4.6146998
4.5948701 -0.095370904 4.63133
4.6072102 -0.0257928 4.62356
4.6016998 -0.0608228 4.6266098
4.6265402 0.0121667 4.6340899
4.5991602 -0.077133097 4.6283002
4.6143498 0.054016098 4.6151099
4.5201502 -0.41030401 4.8051901
4.3116598 -0.98999101 4.8395901
4.6449199 0.25873101 4.59658
4.5229502 -0.56195402 4.80476
4.18681 -1.0012701 4.70258
4.2728601 -1.01538 4.7033601
4.3058 -1.01639 4.7037601
4.3275299 -1.0189 4.7046099
4.35817 -1.02334 4.7045898
4.5237298 -0.53306001 4.7993002
4.2329202 -1.00782 4.7045898
4.25144 -1.0091 4.7044902
4.3316002 -1.01794 4.70399
4.3935599 -1.02952 4.70293
4.39222 -1.0260201 4.7060399
4.6457901 0.242287 4.6001801
4.4088302 -0.98714602 4.70011
4.4923501 -1.0274 4.71696
4.5116301 -0.62905699 4.8064098
4.4972901 -0.98650903 4.7142501
4.5458002 -0.36934799 4.7829199
4.4966502 -0.99042499 4.7143502
4.50211 -0.71523398 4.8143501
4.50456 -0.69027001 4.8116999
4.6412601 0.201525 4.6030998
4.23103 -0.98558998 4.8453202
4.50845 -0.93655002 4.7104301
4.5966501 -0.16191299 4.6348901
4.59341 -0.192789 4.63732
4.5921102 -0.20316701 4.6379399
4.1313 -0.96701699 4.8258901
4.3220801 -0.983688 4.82757
4.1588998 -0.96623898 4.8292999
4.2023101 -0.974774 4.8296499
4.2004499 -0.97043598 4.8313198
4.2795501 -0.97519702 4.8310499
4.3789601 -0.98853999 4.82547
4.2360001 -0.98265302 4.8396902
4.2687201 -0.98108298 4.83494
4.2462101 -0.98113298 4.8369002
4.5838099 -0.29735601 4.64677
4.5093198 -0.91032302 4.7065401
4.1866398 -0.97142899 4.8323102
4.17027 -0.97027701 4.83355
4.0332298 -0.95256501 4.8243198
4.06078 -0.95206499 4.8264799
4.09762 -0.95805001 4.8288898
4.1129699 -0.96201003 4.8315101
4.0267901 -0.94732201 4.8252702
4.4725699 -0.95718199 4.8396902
4.4707599 -0.96989697 4.8403902
4.46561 -0.944619 4.8541198
4.03443 -0.947653 4.82515
4.4670401 -0.92660499 4.8517299
4.0743799 -0.95388001 4.82655
4.51964 -0.792234 4.6950498
4.6291499 0.136741 4.6079202
4.6266398 0.105378 4.6110702
4.5207601 -0.78028601 4.6939602
4.47263 -0.87445098 4.84654
4.5353999 -0.688429 4.68606
4.6004 -0.12782399 4.63238
4.5560398 -0.50264698 4.6671801
4.6058602 -0.073989898 4.6279898
4.6049399 -0.080760501 4.6283302
4.5364099 -0.67261302 4.6841798
4.62503 0.089386202 4.61238
4.6013999 -0.111127 4.6303902
4.4735699 -0.86582798 4.8456898
4.62467 0.080085397 4.6136498
4.5786901 -0.304021 4.6481299
4.5268998 -0.72147501 4.6891799
4.5652099 -0.396276 4.6568699
4.54738 -0.54634303 4.6719398
4.5612402 -0.447303 4.66221
4.5876098 -0.213249 4.6404099
4.5680399 -0.37113801 4.6550498
4.5620699 -0.44001201 4.6616998
4.5843902 -0.24789099 4.6435299
4.5429602 -0.59548801 4.6765599
4.58952 -0.192624 4.6385398
4.6078701 -0.0507975 4.6257901
4.5818601 -0.27235499 4.6454902
4.4802599 -0.81074399 4.8411598
4.5407701 -0.62232602 4.6792898
4.6122699 0.00467618 4.6201401
4.4862099 -0.78160697 4.83534
4.49581 -0.650976 4.82335
4.4887199 -0.71700901 4.8299198
4.4988098 -0.58154899 4.6771302
4.4918799 -0.68801802 4.8270898
4.5966101 -0.124496 4.6331201
4.5016499 -0.57285899 4.81252
4.4993601 -0.59286797 4.8143401
4.5943098 -0.141554 4.6339898
4.5989299 -0.100959 4.6311202
