# .PCD v0.7 - Point Cloud Data file format
VERSION 0.7
FIELDS x y z
SIZE 4 4 4
TYPE F F F
COUNT 1 1 1
WIDTH 80
HEIGHT 1
VIEWPOINT 0 0 0 1 0 0 0
POINTS 80
DATA ascii
0.296307 0.0152326 -0.65345103
0.38193899 0.0041142399 -0.65044999
0.35524401 0.00640311 -0.63247299
0.15384001 0.036141898 -0.65803099
0.061042201 0.019066401 -0.712385
-0.26128501 0.046343599 -0.61896098
0.131367 0.027660901 -0.57482398
0.071468301 0.0205555 -0.71346301
0.37085599 0.0020713101 -0.58372003
0.307208 0.0055913599 -0.670376
-0.269063 0.0357523 -0.652821
0.38071701 0.00475168 -0.57708001
0.36414799 0.0072905901 -0.55328101
0.16187599 0.033455402 -0.53586298
0.103108 0.0393975 -0.624668
0.055720799 0.045669399 -0.61254698
0.40270501 -0.00053772301 -0.61318099
0.13519301 0.0429231 -0.556916
0.157335 -0.021326801 -0.56389099
0.077633999 0.024690799 -0.70336199
0.35992 0.0068613901 -0.688447
0.17489199 0.037626501 -0.619681
0.42383 -0.0066132899 -0.61843097
0.152623 -0.030161399 -0.54749203
0.084534504 0.041146301 -0.63734901
0.28843901 0.0128768 -0.674169
0.40789801 -0.0020860201 -0.60051602
0.0695052 0.045623001 -0.62782699
0.35055301 0.0095514199 -0.640221
0.0352607 0.044178799 -0.62351203
0.18769599 -0.043350499 -0.57102901
0.308337 0.0012562301 -0.70158398
0.166024 0.0334762 -0.65744698
0.186689 0.0286514 -0.62556201
0.047081001 0.046065599 -0.62669599
0.089913398 0.0375573 -0.62798899
0.168479 -0.037661899 -0.58266002
0.31190401 -0.00552127 -0.70754701
0.31406301 0.019974301 -0.68216598
0.34468001 0.0108372 -0.65424597
0.085345402 0.037351102 -0.61827201
0.179655 0.0348951 -0.634139
0.0513932 0.044513799 -0.63516802
0.28492001 0.024454899 -0.685238
-0.26194301 0.0276116 -0.639781
0.053883001 0.095814899 -0.48910001
0.29028901 0.025743799 -0.60094702
0.026135599 0.102364 -0.48352799
-0.25764 0.082018003 -0.42557001
0.325497 0.0123638 -0.64197999
0.29190201 0.025222899 -0.63431197
0.366992 0.0155153 -0.68625897
0.022442 0.047507498 -0.65362197
0.158452 -0.0228747 -0.61616999
0.0370644 -0.0036213 -0.61970699
0.033547401 0.044969101 -0.63770998
0.0990927 0.042505499 -0.64709401
-0.2494 0.016937001 -0.639373
0.157435 0.0292197 -0.65379399
-0.28602701 0.071221799 -0.399856
0.204032 0.0234234 -0.638529
-0.253667 0.0157746 -0.62621897
0.391498 0.0026742599 -0.63868397
0.217179 0.0254722 -0.62686098
0.318995 0.0087384302 -0.55255598
0.049024802 0.022101801 -0.67950499
0.195407 -0.0264825 -0.598647
0.165328 -0.024371101 -0.63424098
0.333736 0.00841974 -0.559654
0.123 0.033911701 -0.59670001
0.074161403 0.040394198 -0.58895302
0.045360401 0.0460958 -0.58044899
0.114936 0.0216166 -0.70964801
0.173177 0.027706699 -0.596892
0.31080601 -0.0033388699 -0.67372298
0.39666501 0.0049827299 -0.65865201
0.31474 0.0131393 -0.62751597
0.190534 0.0264889 -0.56878102
0.18728399 0.025808901 -0.57469702
-0.27810499 0.061799102 -0.40418801
