# .PCD v0.7 - Point Cloud Data file format
VERSION 0.7
FIELDS x y z
SIZE 4 4 4
TYPE F F F
COUNT 1 1 1
WIDTH 336
HEIGHT 1
VIEWPOINT 0 0 0 1 0 0 0
POINTS 336
DATA ascii
5.9180398 0.093154401 2.01828
5.9285998 0.19498099 2.0143199
5.93501 0.25478101 1.95494
5.89217 -0.068843797 2.19414
5.88167 -0.135598 2.1608701
5.8941798 -0.129169 2.1528101
5.9182401 0.294128 2.0543699
5.8558202 0.023514099 2.12012
5.92169 0.133609 2.1993899
5.9204202 0.15613 2.17311
5.88904 0.25409701 1.9779201
5.8871102 0.204613 1.96111
5.8874002 -0.054207701 2.16203
5.9092398 0.105643 2.1454101
5.9205499 0.124017 2.1731801
5.88868 0.19525 1.98026
5.7277398 -0.130283 2.02755
5.9064202 0.29561999 2.02284
5.8648701 0.0336418 1.99113
5.8682399 0.067818202 2.0181
5.92588 0.0472188 2.1659501
5.74576 -0.090532102 2.17539
5.9078202 0.155568 2.1816299
5.8842802 0.171544 2.08166
5.9131598 0.28839701 2.11906
5.7295699 -0.050421 2.05826
5.8881998 -0.061328299 2.1865599
5.7359099 -0.00228761 2.0534201
5.9128699 0.102446 2.1861
5.7757001 0.187703 2.08076
5.7744699 0.28184199 2.0470099
5.9199901 0.14952099 2.19117
5.8967299 0.102045 2.1569099
5.8607101 -0.189072 2.1930399
5.8815398 -0.062925003 2.1428499
5.8654599 0.066240601 2.0768099
5.9108701 0.188688 2.1336501
5.7158699 0.103954 1.95998
5.7347999 -0.056053199 2.0662601
5.8428001 -0.149009 2.08968
5.8638201 -0.021737 2.1096699
5.7629499 0.099244997 2.0295899
5.8838 0.14820801 2.0480599
5.9430299 0.23451699 2.15662
5.9106998 0.0544907 2.16752
5.8586998 -0.0305734 2.0543499
5.93115 0.22035301 2.13919
5.9152298 0.079396501 2.16728
5.9415498 0.26212099 2.15323
5.9075198 0.019356599 2.19242
5.8884001 0.27611199 2.03266
5.87953 0.106168 2.0306599
5.8685298 -0.0221378 2.0188799
5.8905101 -0.092539601 2.18132
5.8540602 -0.054783199 2.04842
5.8744102 -0.029028799 2.13451
5.8494601 -0.031756502 2.07423
5.8722901 0.017358201 2.14658
5.9079199 0.12854099 2.14499
5.9130802 0.152826 2.1344299
5.7723598 0.187856 2.09624
5.9271498 0.21901099 2.16206
5.83743 -0.146411 2.07988
5.8670502 -0.175815 2.17048
5.87218 -0.10007 2.1519799
5.7375398 0.0052705999 1.9998699
5.8419299 -0.077910401 2.0453501
5.8770299 -0.078209497 2.13498
5.9196601 0.175117 2.1498401
5.8608799 0.068784803 2.0522699
5.9055901 0.109273 2.1376901
5.7701101 0.215772 2.0699201
5.8737402 0.154121 2.06112
5.8776598 0.034493402 2.09357
5.8785901 -0.089683697 2.12644
5.7287002 -0.091407098 2.0716901
5.8282499 -0.15064 2.0829
5.9018102 0.103152 2.10572
5.8978901 0.288715 2.03111
5.7472401 0.0134965 2.02543
5.9218702 0.27949601 2.0680001
5.8880701 -0.017050499 2.12676
5.88375 0.16074 2.0568299
5.8878999 0.19989599 2.0391901
5.9259801 0.204964 2.1477499
5.8456202 -0.064843997 2.0320001
5.87393 0.076216899 2.0476501
5.7638502 -0.101339 2.13659
5.8976202 0.067744799 2.09969
5.9316301 0.206076 2.1356599
5.83288 -0.099080898 2.03739
5.85289 -0.0288087 2.0804601
5.7405901 0.0711888 2.07602
5.7547102 0.125734 2.0653701
5.8613601 0.083780698 2.0665901
5.7582002 -0.12539899 2.1540201
5.72226 -0.123793 2.06464
5.7669001 0.216709 2.06075
5.7485199 0.057983201 2.0709801
5.8558698 -0.0183635 2.0794401
5.8515902 -0.0736911 2.09343
5.8899202 0.044903301 2.09777
5.77736 0.26514399 2.0382199
5.9100199 0.22324701 2.1154399
5.74858 0.0771586 2.0957799
5.87114 0.136455 2.06337
5.9078398 0.140279 2.1238401
5.8776598 -0.127938 2.17676
5.8470898 -0.089335002 2.03859
5.8534398 0.034992401 2.03087
5.72122 -0.148572 2.0420001
5.7208099 -0.099173099 2.05705
5.9328799 0.27515 2.1119499
5.8912101 0.024006 2.1172099
5.9075499 0.13621201 2.12639
5.9002099 0.061341401 2.15589
5.89539 0.25619501 2.0362599
5.7498999 0.17821901 2.00174
5.86023 0.0674496 2.0367
5.7309198 -0.091990799 2.1085401
5.90137 0.196459 2.11887
5.87608 0.117103 2.0716701
5.8723502 0.142975 2.06407
5.83535 -0.15713499 2.08724
5.9226298 0.28303999 2.0846901
5.9005899 0.13452201 2.0908101
5.8673601 0.026101399 2.00859
5.7484102 0.088602901 2.0919399
5.7287598 -0.129462 2.0725601
5.87644 -0.130108 2.0641501
5.7371202 0.0139053 2.07354
5.7689099 0.201978 2.0683
5.7727599 0.30478001 2.02263
5.9119401 0.209295 2.1145599
5.7358298 -0.061779499 2.02215
5.8824801 0.23001 2.0480499
5.7572498 -0.104169 2.07196
5.8482599 -0.0202666 2.0857
5.8614702 0.105223 2.0499401
5.7651601 0.307293 1.99745
5.9130201 0.244664 2.1000099
5.7663102 0.128065 2.0826499
5.8677402 0.047239099 2.03826
5.8407001 -0.0468252 2.02795
5.8314199 -0.079043299 2.0410299
5.72293 -0.10372 2.0403199
5.7068901 -0.121474 2.0434999
5.7313399 -0.020567801 1.94944
5.9013 0.14929201 2.11605
5.8750701 -0.105555 2.1568201
5.8749499 0.193786 2.0014901
5.7335401 0.0045786998 1.96527
5.83636 -0.125918 2.0562799
5.8870502 0.243607 2.0581601
5.83288 -0.090785697 2.02988
5.8740802 0.022946199 2.0432401
5.76577 0.219923 2.0028901
5.8794899 0.213056 2.0025001
5.8662701 -0.125122 2.1048
5.8888402 0.077251397 2.0342801
5.8689899 0.130372 2.0233099
5.8014898 0.26502499 2.02597
5.9229798 0.288739 2.0390201
5.9113898 0.24559399 2.0345299
5.90449 0.177377 2.03335
5.88554 -0.0541397 2.1101999
5.8496199 -0.049741801 2.05176
5.7377701 -0.00715895 2.0011499
5.8951001 0.093511999 2.06213
5.7592702 0.182384 1.99376
5.7073998 -0.13206901 1.96597
5.8350801 -0.065616101 2.0209501
5.8425598 -0.034437101 2.02545
5.8598199 0.037696101 2.0418301
5.9114599 0.208029 2.0898399
5.88376 0.229854 2.01297
5.8085299 0.241495 2.0455899
5.7790599 0.3114 2.0206001
5.9277101 0.27273399 2.0336699
5.7765598 0.30243701 2.01104
5.7497001 0.092442498 1.99676
5.7643399 0.201548 2.0092399
5.8810701 0.17181 2.0192101
5.8977799 0.149875 2.0568299
5.87075 0.128811 2.0178699
5.7975602 0.21227799 2.0962
5.9074502 0.184655 2.06024
5.8570399 -0.022265499 2.07726
5.8716402 -0.086015202 2.1380999
5.9102201 0.114454 2.0480001
5.8339601 -0.13711999 2.0622399
5.9164701 0.296626 2.0265701
5.8982902 0.076129399 2.10765
5.8947301 0.142285 2.0511601
5.7337599 -0.0356506 1.97463
5.8640499 0.120565 2.01457
5.8738899 0.033409201 2.03444
5.8537402 -0.0237904 2.0890999
5.90411 0.182109 2.07339
5.8651299 -0.091915198 2.13117
5.7304702 -0.0296099 1.9585201
5.8641801 0.096862301 2.0276899
5.7416301 0.14276101 2.00562
5.8873701 0.072423801 2.0738101
5.7468901 0.078948297 1.99577
5.75383 -0.111 2.08969
5.8699598 -0.029873701 2.10096
5.8563299 0.056090102 2.01842
5.8860998 0.0670968 2.07794
5.9003901 0.15767799 2.0532701
5.7659602 0.29814699 2.0269301
5.90834 0.27668601 2.0726199
5.7221599 -0.0662072 2.0169001
5.7579999 0.16935501 2.0005701
5.9096999 0.28749099 2.0701101
5.9049902 0.27213699 2.0929599
5.8614402 0.023372199 2.0543499
5.8589902 -0.0263383 2.0798299
5.84828 -0.0241284 2.0913
5.8812399 0.123271 2.02738
5.8664799 -0.110353 2.1314199
5.86198 0.021015899 2.05266
5.9084601 0.29182601 2.0433099
5.8757601 0.028401799 2.0524199
5.8021002 0.248101 2.0634201
5.7603598 -0.13417201 2.1635799
5.9125099 0.226522 2.06408
5.90025 0.109476 2.0843599
5.7589002 -0.099522002 2.12678
5.8648801 -0.152697 2.1142099
5.7620201 -0.091061398 2.1535299
5.83181 -0.133114 2.0418799
5.87921 0.029915299 2.0575199
5.8580799 0.062333599 2.02355
5.8672099 0.120395 2.00844
5.8789802 0.215528 1.98157
5.90098 0.18470401 2.13269
5.87676 -0.0495965 2.1048801
5.9044099 0.168782 2.06703
5.8706799 0.196209 2.00192
5.7217598 -0.15926801 2.03442
5.9172101 0.238012 2.09568
5.8999701 0.144471 2.0678501
5.87819 0.0257411 2.05896
5.74192 0.0462167 1.97752
5.7200098 -0.120651 2.0629001
5.7309699 -0.0113883 1.9636199
5.84375 -0.038523499 2.08413
5.8721199 -0.036604501 2.0976901
5.8533201 -0.0289595 2.092
5.91749 0.27920201 2.05884
5.8580298 -0.027429599 2.0879099
5.8740602 0.0154404 2.0831001
5.8682399 0.0161086 2.09005
5.87537 -0.061806001 2.0262699
5.84269 -0.034453399 2.0694101
5.7827101 0.29912099 2.04776
5.9133501 0.29333901 2.0267401
5.9131198 0.292018 2.05265
5.8611598 -0.0263428 2.0790801
5.7346301 -0.0021687001 1.97005
5.78297 0.30424201 2.0539999
5.8710499 0.0132986 2.0971701
5.86447 0.010123 2.105
5.90205 0.16575301 2.0553501
5.8877802 0.070270702 2.0784099
5.8509002 0.0226066 2.1019101
5.8671098 -0.112177 2.08108
5.9102402 0.217088 2.02372
5.8796101 -0.0277094 2.0399401
5.8766298 0.0135505 2.1010699
5.8957901 0.101858 2.05812
5.8824 0.0172989 2.0984199
5.92133 0.286596 2.0162001
5.8878899 0.0543417 2.0729799
5.8682399 -0.129008 2.0592201
5.9039502 0.185221 2.0546999
5.8710198 -0.0271377 2.09026
5.7761402 0.305197 2.0473399
5.8714099 -0.0735403 2.08672
5.8586102 -0.0242314 2.08552
5.8752398 0.0204104 2.0743001
5.9127002 0.284383 2.06354
5.9066901 0.287357 2.0615101
5.7785101 0.29684401 2.05845
5.8820901 -0.0325583 2.08268
5.8772402 -0.057794299 2.0515299
5.8630099 -0.0283089 2.0884099
5.8735399 -0.039161101 2.09128
5.88873 0.0294818 2.08902
5.8761201 -0.034853298 2.0969501
5.8526402 -0.024509 2.0938699
5.8842001 -0.047959302 2.05864
5.8733101 -0.0809903 2.0845399
5.8633099 -0.16051599 2.0964701
5.8724799 -0.076374903 2.0949099
5.87392 -0.095486201 2.0833499
5.8655 -0.145973 2.0933499
5.75808 -0.101161 2.1078401
5.7508001 -0.14391799 2.09427
5.7526698 -0.145826 2.0829599
5.9042201 0.29150301 2.05304
5.7776399 0.301539 2.0455101
5.90378 0.19638699 2.0334699
5.8988199 0.133627 2.0824001
5.8737302 0.113581 2.04496
5.8569999 0.133752 2.0762899
5.8922501 0.0604809 2.0797901
5.8748798 0.21168999 2.0983601
5.8949699 0.0277257 2.0806201
5.7407098 0.099247701 1.9831899
5.8467398 -0.0457341 2.07743
5.8712001 -0.0732015 2.0855701
5.8920698 0.016478101 2.0899301
5.7336798 0.061636299 2.0260799
5.86169 -0.155698 2.0999601
5.8688402 -0.125847 2.09566
5.7538199 -0.087650403 2.0718601
5.7498999 -0.15172599 2.1018701
5.7249599 -0.12481 2.09288
5.7175899 -0.15046901 2.0229199
5.8520999 -0.029095 2.08427
5.8636799 0.0105174 2.0925601
5.8703799 -0.0258982 2.08376
5.71278 -0.139503 2.0137701
5.7179399 -0.119661 1.9888
5.9120102 0.214206 2.03666
5.7698398 0.30004999 2.0475099
5.87606 0.0104771 2.09761
5.8789701 -0.078354597 2.08972
5.8673401 -0.12974501 2.09271
5.91155 0.29176801 2.06339
5.8987298 0.098772898 2.0601699
5.8851399 0.0103145 2.10517
5.86938 -0.158618 2.0994799
5.87115 -0.110535 2.09185
