# .PCD v0.7 - Point Cloud Data file format
VERSION 0.7
FIELDS x y z
SIZE 4 4 4
TYPE F F F
COUNT 1 1 1
WIDTH 202
HEIGHT 1
VIEWPOINT 0 0 0 1 0 0 0
POINTS 202
DATA ascii
2.1459799 0.540676 6.9955401
2.1551499 0.61412299 7.0027299
2.1354899 0.559596 7.0077701
2.16769 0.61473799 6.9802399
2.17257 0.60828 6.9876499
2.1501801 0.567671 6.98598
2.0435901 0.83142102 6.9895802
2.14399 0.52393198 6.9021902
2.1489601 0.55664301 6.9824901
2.13764 0.56489301 6.9192901
2.1585 0.57833397 6.9796901
2.1452999 0.54889798 6.9039102
2.1577699 0.565373 6.9730201
2.1901801 0.63826799 6.9721699
2.1307499 0.52223599 6.9081898
2.15957 0.54986203 6.9679999
2.18345 0.60773599 6.9583702
2.19803 0.646577 6.9657102
2.20996 0.64083701 6.95471
2.19858 0.65074098 6.9489298
2.21383 0.64981401 6.9460702
2.1572299 0.62040401 6.9018302
2.2124901 0.63966501 6.9572301
2.21228 0.63585001 6.93152
2.17366 0.547104 6.94491
2.1800399 0.55897701 6.9468799
2.2186699 0.65593702 6.9547801
2.2061 0.65880799 6.9609098
2.17418 0.56421298 6.9524798
2.1888001 0.593319 6.9505901
2.18397 0.56801403 6.9469099
2.1900301 0.63145 6.9553499
2.1940401 0.63319999 6.9453802
2.1829 0.58788198 6.9537601
2.1756899 0.54922497 6.95013
2.1552501 0.57718003 6.89922
2.1920099 0.61209399 6.9621301
2.19871 0.64365602 6.9488001
2.1206701 0.571024 6.93013
2.19769 0.64936602 6.9471598
2.1832399 0.60525799 6.9587598
2.22335 0.63707298 7.0067401
2.17805 0.57723898 6.9653201
2.1322801 0.52789199 6.9070802
2.15766 0.59319901 6.89888
2.13099 0.53307998 6.90066
2.1786201 0.58777499 6.9548502
2.19467 0.64292699 6.9711599
2.1679101 0.53945303 6.9577398
2.1594801 0.60250801 6.9066601
2.1865201 0.61586201 6.9656701
2.1956401 0.65430301 6.9516101
2.1491599 0.57940298 6.8977399
2.18419 0.58598 6.9414902
2.12023 0.518071 6.9008398
2.1988599 0.59940398 6.9303999
2.13889 0.578547 6.9008298
2.21543 0.63562602 6.9205399
2.1910701 0.577905 6.9337301
2.1777101 0.53528601 6.9308
2.1205399 0.523422 6.9050298
2.1839199 0.55406898 6.9320698
2.21421 0.64025402 6.9250898
2.2291901 0.73461998 6.8931098
2.19856 0.59406102 6.9296799
2.1322801 0.538822 6.9038501
2.1294301 0.53007501 6.89744
2.1680901 0.524939 6.9467101
2.14569 0.599935 6.9100599
2.1547999 0.63183397 6.9039102
2.12465 0.52380401 6.9052501
2.1737199 0.52650702 6.9348602
2.1442001 0.57676202 6.90382
2.20312 0.61354703 6.9369001
2.14674 0.56581199 6.90271
2.16908 0.51879001 6.9405999
2.1965899 0.57969499 6.9320698
2.1530399 0.611 6.902
2.1998899 0.59814501 6.9450898
2.2080801 0.61492199 6.9238801
2.12906 0.52498198 6.8995399
2.18329 0.54414397 6.9318399
2.14645 0.57173997 6.9024601
2.20118 0.58724397 6.9290299
2.1375201 0.53704101 6.8965802
2.1723599 0.52113998 6.9376502
2.1860399 0.54616898 6.9324698
2.22019 0.63959301 6.9168901
2.11777 0.508955 6.9074001
2.1261699 0.51806301 6.8991799
2.1993899 0.58097899 6.9257598
2.20262 0.58855301 6.92837
2.1500499 0.57559401 6.8994098
2.1342299 0.53203899 6.9017601
2.12185 0.519243 6.9216599
2.1865599 0.524755 6.9292102
2.15903 0.60692602 6.9123302
2.21328 0.61679697 6.9331398
2.2097199 0.61402202 6.9567199
2.2163301 0.63067001 6.9395399
2.1284499 0.51658303 6.8972101
2.1861701 0.537462 6.92909
2.2237201 0.71736097 6.9042602
2.2241399 0.73246402 6.9078202
2.2251401 0.75502199 6.9032102
2.2176399 0.63472301 6.9233398
2.2026701 0.585271 6.9246898
2.14885 0.56690401 6.8965302
2.19208 0.55220598 6.9281802
2.1354699 0.53481299 6.8969598
2.15557 0.59250402 6.8987498
2.20678 0.59506398 6.9267302
2.1443501 0.559771 6.8966899
2.1289001 0.51746398 6.8995399
2.1855199 0.53503001 6.9309402
2.13254 0.53095198 6.89817
2.2244 0.704813 6.9044399
2.2293301 0.75748801 6.9012098
2.1463101 0.56449902 6.9020801
2.19596 0.55498302 6.9236898
2.1786399 0.52585799 6.9275398
2.217 0.63343501 6.9232302
2.20508 0.59069097 6.9229898
2.20646 0.58564001 6.9239998
2.2090099 0.62997901 6.9346199
2.1605 0.81943899 6.89185
2.1751299 0.51705498 6.9314699
2.1108501 0.50142503 6.9087701
2.1250401 0.52604997 6.9046001
2.1870201 0.66593498 7.0170798
2.15625 0.81403798 6.9139199
2.2270999 0.704795 6.9085898
2.11605 0.50386202 6.9081898
2.13696 0.54960299 6.9068398
2.19504 0.569601 6.9344702
2.15203 0.58169597 6.9028201
2.15748 0.59353501 6.8998899
2.1386099 0.55519301 6.9068098
2.13007 0.52617401 6.9064898
2.13817 0.54439402 6.9121699
2.1903801 0.54067397 6.9433398
2.20399 0.59725302 6.9264002
2.1228399 0.51094198 6.9148898
2.1613901 0.59305298 6.89709
2.1154399 0.49990901 6.9130902
2.1447001 0.55415398 6.9017501
2.12444 0.50886399 6.9049702
2.14396 0.53894699 6.8980398
2.13258 0.51091701 6.8976798
2.1280501 0.50793898 6.89887
2.1742201 0.515266 6.93573
2.1396101 0.55666202 6.90096
2.22527 0.71149498 6.9099002
2.2282701 0.74884099 6.9050202
2.22575 0.76006901 6.8973799
2.1533699 0.58306903 6.9038901
2.1285801 0.54670101 6.91502
2.2125001 0.59910202 6.9225898
2.20227 0.59297198 6.9373002
2.1798501 0.52673203 6.9319501
2.17835 0.51793802 6.9268298
2.1276901 0.52144301 6.8998199
2.13656 0.53907198 6.89674
2.22416 0.74105197 6.9054198
2.2221999 0.72732002 6.9040399
2.20609 0.61389703 6.9289198
2.15291 0.620781 6.9061899
2.14189 0.54470003 6.8951502
2.1452899 0.56493503 6.9047599
2.1486101 0.57962698 6.9063301
2.13078 0.53846198 6.9109602
2.1142001 0.508542 6.9147201
2.1279199 0.52306598 6.90839
2.2274401 0.66020399 6.8705401
2.2416899 0.57472497 6.91324
2.2202799 0.54571003 6.9025602
2.2230301 0.52265501 6.9115
2.22191 0.64120001 6.86449
2.21805 0.71785098 6.8544202
2.2188799 0.75812101 6.8524599
2.2108099 0.64175099 6.8664298
2.2265699 0.68476701 6.8596902
2.2256401 0.71744299 6.8579001
2.2192099 0.73330897 6.84659
2.2226901 0.63199002 6.8656802
2.22282 0.654311 6.8645701
2.2320399 0.68059498 6.8610001
2.22721 0.71481502 6.8501101
2.23104 0.665793 6.85746
2.23546 0.67668498 6.8534098
2.2332399 0.68930501 6.86131
2.2341299 0.69282597 6.8585401
2.2254701 0.709795 6.8674598
2.2237 0.641801 6.8629899
2.22226 0.66736197 6.8528099
2.2276101 0.69235098 6.86449
2.2314799 0.69590503 6.8614101
2.21754 0.70476598 6.8671498
2.2244899 0.62111902 6.8641901
2.2327399 0.676588 6.85814
2.23457 0.699965 6.8586998
2.22839 0.68433499 6.8629098
