# .PCD v0.7 - Point Cloud Data file format
VERSION 0.7
FIELDS x y z
SIZE 4 4 4
TYPE F F F
COUNT 1 1 1
WIDTH 86
HEIGHT 1
VIEWPOINT 0 0 0 1 0 0 0
POINTS 86
DATA ascii
-0.178239 0.79527003 2.68606
-0.117289 0.75644302 2.7278399
-0.134726 0.784536 2.70962
-0.110796 0.78764498 2.75231
-0.114298 0.79117298 2.7571399
-0.17819799 0.79228598 2.7570601
-0.11921 0.76776803 2.7195599
-0.135272 0.76675999 2.7000699
-0.110195 0.76574498 2.7307501
-0.128861 0.765854 2.71311
-0.138191 0.765921 2.69277
-0.14123601 0.766289 2.70539
-0.118331 0.76165998 2.72609
-0.142882 0.76401299 2.6802399
-0.14523301 0.76428097 2.68015
-0.123356 0.76586002 2.7137201
-0.107619 0.76422 2.72891
-0.116458 0.764072 2.7195599
-0.133792 0.76692599 2.6979301
-0.12862 0.76765299 2.7091
-0.127073 0.77032697 2.7147
-0.090354003 0.76498401 2.7615399
-0.099772699 0.76518798 2.74493
-0.085284397 0.76418602 2.75491
-0.125036 0.76598799 2.71106
-0.150218 0.77018499 2.6928999
-0.097606704 0.76339799 2.7702401
-0.12074 0.75710797 2.73193
-0.082218498 0.76795501 2.7715399
-0.106153 0.76456797 2.7297699
-0.146111 0.765576 2.6773701
-0.082533501 0.76504701 2.76636
-0.079387203 0.76179099 2.7590499
-0.149661 0.76728201 2.6845601
-0.120108 0.759866 2.72402
-0.104849 0.76665097 2.73107
-0.128208 0.764211 2.7100201
-0.110758 0.76138401 2.7106199
-0.14990599 0.769445 2.6686599
-0.112706 0.763538 2.7008801
-0.120277 0.77125299 2.7255199
-0.093224101 0.75975603 2.7609401
-0.140956 0.76375097 2.66996
-0.090773799 0.76608199 2.7537501
-0.139688 0.76511401 2.6954601
-0.128942 0.76306599 2.6829801
-0.114906 0.76638597 2.7089901
-0.110908 0.76479203 2.7435501
-0.109471 0.764189 2.7016201
-0.119297 0.76670301 2.72598
-0.110975 0.76592499 2.7310901
-0.108401 0.76340801 2.70139
-0.091127098 0.77199298 2.7721701
-0.138143 0.76241201 2.6705301
-0.14823 0.76880699 2.6981499
-0.117189 0.76962501 2.7337301
-0.115294 0.76649898 2.69941
-0.121883 0.76552701 2.6883299
-0.126518 0.76749498 2.71157
-0.128157 0.76737702 2.72734
-0.100601 0.76731497 2.7578001
-0.097671501 0.76551098 2.7474
-0.107392 0.762972 2.7019401
-0.111038 0.76278102 2.69805
-0.150076 0.77047002 2.6907499
-0.120825 0.768794 2.7250299
-0.106829 0.76334202 2.7179799
-0.120406 0.76459098 2.71802
-0.103932 0.764377 2.7362001
-0.082833201 0.76103902 2.7623999
-0.129685 0.75749803 2.6731901
-0.115493 0.76380098 2.7220199
-0.094594099 0.76114303 2.7434599
-0.101915 0.75990403 2.7207999
-0.15565699 0.75988698 2.6944301
-0.14010499 0.76236802 2.66414
-0.131942 0.76266599 2.71524
-0.137778 0.76198399 2.67415
-0.114354 0.76782203 2.73105
-0.093118198 0.76406699 2.7562599
-0.15324099 0.75912201 2.6732099
-0.133408 0.764696 2.6981101
-0.096912302 0.76260698 2.71924
-0.103311 0.76393801 2.7107601
-0.10128 0.76509601 2.74564
-0.130541 0.763991 2.7035601
