# .PCD v0.7 - Point Cloud Data file format
VERSION 0.7
FIELDS x y z
SIZE 4 4 4
TYPE F F F
COUNT 1 1 1
WIDTH 183
HEIGHT 1
VIEWPOINT 0 0 0 1 0 0 0
POINTS 183
DATA ascii
1.92563 0.53330201 7.1932402
2.0208099 0.49907601 7.0529599
2.01738 0.521222 7.1135302
2.0599699 0.508362 6.9951401
1.8608299 0.52225399 6.9198098
1.9720401 0.49549699 6.9161601
1.9387 0.49164501 6.9060602
2.0332 0.49857301 6.9884601
2.0357001 0.495233 7.0363202
2.07705 0.50726098 6.96347
1.9875799 0.497329 6.9567099
1.93124 0.49187699 6.8586102
1.94915 0.51707 7.2679
1.97858 0.48432899 6.947
1.90298 0.51024097 6.9293199
2.0582299 0.50454199 6.95013
2.0023701 0.50095499 7.1457601
1.91592 0.501638 6.89293
1.96951 0.50299299 7.1500401
2.0947299 0.47769299 6.9639101
1.90292 0.51300597 7.0199299
1.99538 0.485627 7.17484
2.0731699 0.48568401 7.1161499
1.87377 0.530276 7.1126499
1.84196 0.52467197 7.0534902
1.82607 0.52542901 6.9767199
1.99658 0.49003899 7.1812501
2.0253799 0.496905 7.1749802
2.06741 0.47557399 7.1578999
2.05463 0.48587501 6.9731698
1.86816 0.50093597 6.8455701
2.01562 0.47287101 6.9376602
2.0671201 0.48122099 7.0657101
2.0676301 0.47817299 7.0196199
1.93572 0.492791 6.8485198
1.86633 0.50896502 6.84166
1.83262 0.52535403 6.8908901
1.8554 0.51363498 7.0252299
1.94243 0.517528 7.0749798
1.92012 0.50268 6.8782401
1.91136 0.51266599 6.9973001
2.06671 0.48011899 7.10427
2.03703 0.467085 6.9569898
2.0521901 0.483513 7.0311799
1.89256 0.50453597 6.9238701
1.8868999 0.51020098 6.9837499
1.95254 0.50697398 7.0662098
1.86507 0.52768701 6.9935298
2.0705099 0.486498 7.1103401
1.90346 0.54065597 7.0529099
2.0368299 0.50578803 6.9503198
2.04548 0.482409 7.1284399
1.98798 0.53061098 6.9644799
2.0490799 0.484274 6.9527302
1.91456 0.51644802 7.0597801
1.97798 0.49401501 7.0672998
2.0434 0.49321499 7.1771202
2.1033399 0.47300401 6.95575
2.0890601 0.47267199 7.1027098
2.0153401 0.51485801 7.21908
2.06077 0.475609 7.12711
2.06392 0.483091 7.1602898
2.03 0.48997501 7.1285601
2.0659499 0.48328501 6.9846301
2.0636201 0.48052701 7.0128102
2.0416901 0.487479 7.1212502
1.92928 0.49850199 6.93577
1.92229 0.50099897 7.01724
2.0460501 0.49473399 7.1574001
1.93635 0.50957102 7.0499401
1.92548 0.51456201 6.9066901
2.0361099 0.48580399 7.04002
2.03475 0.48685199 7.12221
2.09921 0.486628 6.9653001
2.05674 0.496815 6.9476099
2.0336399 0.48297599 7.0939002
2.03951 0.487486 7.0483799
1.93323 0.51547801 7.0711699
2.0343101 0.48850501 7.1182499
2.0297699 0.49773601 7.2067199
1.9320101 0.50320399 6.9485402
1.92943 0.50095898 6.8839502
1.93529 0.51815498 7.0626001
2.02369 0.49930501 7.2233801
2.1003799 0.482214 6.9689498
2.0360899 0.48428199 7.1129599
1.93999 0.51233602 7.0695801
2.0962501 0.47877899 6.95539
2.0250399 0.49226901 7.15903
2.0466599 0.483367 7.0387602
1.94271 0.51715398 7.0651698
1.93006 0.50070697 6.9180598
2.0346301 0.481213 7.0955801
2.03685 0.48438501 7.1040401
1.96139 0.51369703 7.08745
2.0406799 0.49979401 7.2062802
1.93156 0.50021398 6.9250998
1.93042 0.49636099 6.84831
2.04246 0.48737499 7.0924602
2.04316 0.48543799 7.0775599
1.93075 0.49540201 6.8808799
2.04514 0.485291 7.0597
1.93668 0.50468498 6.8710399
1.93007 0.50032198 6.92487
2.0531399 0.48395401 7.0514898
1.93622 0.499019 6.9270601
1.94066 0.50616199 7.0357199
2.0548401 0.482373 7.0335698
1.93616 0.49465501 6.8439999
2.0383799 0.49851301 7.1919799
2.0404699 0.487692 7.1244898
2.13118 0.47487 6.9317598
1.93695 0.48718399 6.88134
1.94109 0.51847798 7.1033602
2.0381 0.49125701 7.1385999
1.94248 0.501957 7.05129
2.03562 0.49700999 7.17834
2.0443101 0.486803 7.0884099
2.0334499 0.492156 7.1575799
2.03353 0.496488 7.1976199
2.03967 0.48389599 7.0580702
1.9422899 0.50875199 7.0469499
1.94436 0.50290197 6.8924799
2.0418999 0.494407 7.1550498
2.0496099 0.485872 7.0711799
2.0450599 0.49026901 7.0601802
2.0459099 0.48724699 7.1231298
2.05498 0.491445 7.0312099
2.08674 0.486379 6.9686999
1.94845 0.50321501 7.0638199
2.0437801 0.503151 7.1951098
2.05234 0.48823601 7.0665598
2.04474 0.491366 7.12783
2.0676899 0.507312 7.0085001
1.95126 0.48103499 6.8782001
2.05107 0.48751399 7.0669298
2.0491199 0.487073 7.0823302
2.0308299 0.50835699 7.13761
1.95452 0.52072001 7.1707602
1.95468 0.51210201 6.9207301
2.0503299 0.489234 7.0945802
2.0250199 0.49311301 7.1854401
1.9450999 0.487932 6.8488102
2.0780201 0.48643899 6.9876699
2.0847299 0.475162 6.9667902
2.0745599 0.489463 6.9933901
2.0736499 0.48204201 6.9972
1.95446 0.51662999 7.0868902
2.0636001 0.48638201 7.0260501
2.0522001 0.49645999 7.18468
2.0492699 0.490538 7.14326
2.08324 0.48523301 6.9721999
2.08266 0.48468399 6.9749498
2.03069 0.515571 7.1648998
2.0663099 0.46065301 7.0616598
2.05282 0.48723701 7.0599999
2.06306 0.48718899 7.0254002
2.0499001 0.48837399 7.08042
2.0346701 0.50099999 7.2063098
2.0409501 0.48078999 7.0764999
2.0335801 0.48658901 7.1389098
2.0487299 0.50105399 7.1735802
1.94091 0.514054 7.0507798
2.04404 0.491438 7.1538401
2.04527 0.486408 7.0950699
2.0840199 0.49182099 6.9604802
1.94552 0.490145 6.99333
2.0497601 0.49438199 7.0506501
1.94257 0.50932503 7.1304002
2.0388 0.49604601 7.2010298
2.03936 0.49099401 7.15418
2.0416901 0.48535299 7.0907502
1.94288 0.48502699 6.8397102
1.94524 0.49379301 6.92627
1.94279 0.50504798 7.05619
1.9439501 0.51323903 7.1065998
1.94656 0.52151 7.1414399
1.94736 0.485048 6.8775501
2.08603 0.48641101 6.9683299
2.0692401 0.48275799 7.0061498
1.93076 0.56070602 7.1545801
2.0632901 0.48212501 7.0293198
2.0484099 0.49398401 7.1626
