# .PCD v0.7 - Point Cloud Data file format
VERSION 0.7
FIELDS x y z
SIZE 4 4 4
TYPE F F F
COUNT 1 1 1
WIDTH 417
HEIGHT 1
VIEWPOINT 0 0 0 1 0 0 0
POINTS 417
DATA ascii
-0.379843 -0.78936398 4.1168499
-0.060133699 -0.81474501 4.1036201
-0.31993601 -0.82569098 3.94943
-0.38936901 -0.78683501 4.10045
0.33760399 -0.90980798 3.94189
0.42828 -0.86337399 4.0950999
0.31191099 -0.90497601 3.9551799
-0.36730999 -0.80401498 4.1485
0.194649 -0.83524102 4.1005802
0.34528199 -0.91604602 3.9740701
0.24862599 -0.90238202 3.94032
-0.31430501 -0.79920602 4.1238599
-0.049184699 -0.85844499 3.91383
-0.148773 -0.84276199 3.9314899
-0.22129899 -0.834387 3.94084
-0.083357103 -0.85192299 3.93683
-0.320694 -0.82629901 3.9340301
-0.41897699 -0.87857801 3.9981201
0.48734799 -0.940247 3.9947701
-0.286823 -0.82972598 3.9008999
-0.39189199 -0.77657503 4.1148601
0.23525 -0.88745499 3.93664
-0.44304499 -0.85748303 3.99
-0.301177 -0.83488202 3.9461801
-0.0365902 -0.86704701 3.9555399
0.12914801 -0.883259 3.9096999
0.21148001 -0.88811499 3.9332099
0.0447651 -0.82549399 4.1070399
0.49472499 -0.86888897 4.08253
0.28032199 -0.84948498 4.0933199
0.42009601 -0.92410398 3.9663
-0.10993 -0.85177797 3.92574
-0.32927501 -0.78745002 4.0984402
-0.154828 -0.85250902 3.9551599
0.087151498 -0.88788497 3.9663
0.30855799 -0.85274899 4.0885
-0.430969 -0.863792 3.9958601
-0.30456501 -0.83481002 3.9463
-0.109912 -0.853095 3.91343
0.34170499 -0.91363502 3.9242899
0.045926999 -0.82700598 4.1094899
0.48821101 -0.88384002 4.1117501
-0.335051 -0.83040702 3.9534299
-0.25889599 -0.84502798 3.9571199
-0.35836101 -0.78162998 4.1221099
0.0422258 -0.87320501 3.9424
0.367311 -0.90561098 3.9105501
0.40799201 -0.87344098 4.1110702
0.387741 -0.87970799 4.1315799
-0.278427 -0.83406198 3.95087
-0.085202001 -0.85504699 3.9325299
-0.063166402 -0.86265701 3.9252601
0.298408 -0.90557802 3.95171
0.079921603 -0.82753497 4.10044
0.445476 -0.92029899 3.9579799
-0.20745701 -0.84527802 3.95452
-0.15824801 -0.85024202 3.9478199
-0.338319 -0.79683501 4.11765
-0.33528599 -0.782287 4.0889001
-0.073954597 -0.85615098 3.9465201
0.105523 -0.88037598 3.9302001
0.212171 -0.90990502 3.87201
0.205437 -0.89426702 3.9534099
-0.42423299 -0.88630801 4.0033102
-0.31719199 -0.84528202 3.86466
0.105111 -0.89409602 3.8626599
0.083221398 -0.87638003 3.91466
0.243754 -0.90442997 3.9586999
0.19914 -0.85455102 4.1380901
0.55849802 -0.94157201 3.9809501
-0.41751301 -0.889359 4.0026498
-0.319828 -0.82942498 3.94191
-0.112076 -0.85074002 3.9242899
0.088038497 -0.88215101 3.9556899
0.26288301 -0.89892203 3.9418099
-0.045543801 -0.81207103 4.1043
0.183872 -0.84998798 4.1066298
0.272553 -0.85842401 4.1155701
0.42762801 -0.86382198 4.0953302
0.434053 -0.87057698 4.1154599
-0.33962899 -0.829561 3.9483399
-0.277428 -0.83599102 3.94627
-0.36139199 -0.78878599 4.1202898
-0.34298801 -0.786165 4.0980501
-0.371591 -0.83660501 3.8571601
-0.31500599 -0.836456 3.9232099
-0.034933101 -0.88704997 3.87747
0.047973599 -0.89677697 3.8852
0.141449 -0.90398401 3.8763599
0.34705201 -0.91329098 3.9214499
0.473086 -0.92891598 3.9563899
-0.00965642 -0.865242 3.93627
0.23226701 -0.92394102 3.8931201
0.117345 -0.876791 3.9231501
0.068591401 -0.82904899 4.1090999
0.070154697 -0.82795399 4.0932598
0.241614 -0.85479599 4.12147
-0.301328 -0.79195398 4.1024199
-0.39157 -0.78647101 4.1217299
-0.32503501 -0.84059298 3.93241
-0.27443799 -0.843804 3.9558301
-0.056967601 -0.883434 3.87902
-0.13882101 -0.85913002 3.94085
-0.1415 -0.86178499 3.97089
0.0323673 -0.891976 3.8793199
0.080063298 -0.90449297 3.8916099
0.045651801 -0.89976299 3.9901099
0.136289 -0.904401 3.8782201
0.106038 -0.88824397 3.91571
0.189504 -0.907278 3.88026
0.12388 -0.89828902 3.9677999
0.262384 -0.91710699 3.87938
-0.0233074 -0.82462299 4.1101098
0.39478299 -0.92323101 3.9458101
0.20325001 -0.84984601 4.1132798
0.256953 -0.85185498 4.1009598
0.51789498 -0.88865 4.1156101
-0.418363 -0.89285803 3.99823
-0.35129201 -0.84895802 3.88134
-0.430242 -0.80025601 3.8801999
-0.41329199 -0.79630202 3.9209499
-0.25643799 -0.85332602 3.9742
-0.113266 -0.87699801 3.882
-0.00698369 -0.88580799 3.87552
0.100841 -0.83947802 4.1125898
-0.304876 -0.793217 4.11485
-0.0250748 -0.873909 3.9674799
0.235223 -0.90863103 3.96561
0.27861801 -0.91499603 3.9765501
0.34351 -0.91444701 3.96222
-0.162671 -0.871526 3.8806
-0.42952201 -0.88416302 3.99459
-0.30250701 -0.85714501 3.8861699
-0.34377801 -0.83698797 3.94664
-0.30259201 -0.845281 3.9593999
-0.27854201 -0.859061 3.9781799
-0.25590599 -0.84628999 3.96507
-0.162926 -0.869645 3.9722199
-0.072314903 -0.87951899 3.8817599
-0.135787 -0.86090499 3.9317901
0.016558001 -0.88709497 3.87537
-0.35645601 -0.78741002 4.10817
-0.068295598 -0.86939597 3.95612
-0.0360431 -0.86937797 3.9326
-0.33353001 -0.78638202 4.1113
0.13478 -0.90435702 3.8835499
0.053937599 -0.89294797 3.97839
0.075715102 -0.88184601 3.9380701
0.314796 -0.92917699 3.8885701
0.480479 -0.93525797 3.9586599
0.52752602 -0.940413 3.96664
0.60655802 -0.93552297 3.95555
0.31396699 -0.84986299 4.1290998
-0.119048 -0.86880302 3.96592
-0.0020343501 -0.88441497 3.87413
-0.230772 -0.849935 3.9265699
-0.158197 -0.869739 3.88415
-0.30234501 -0.79188001 4.1040401
0.37356901 -0.921031 3.92783
-0.453686 -0.88950801 3.97719
-0.417858 -0.87897903 3.9962599
-0.30714101 -0.846398 3.9316599
-0.25366101 -0.84656203 3.9500899
0.065829799 -0.88253897 3.9328201
0.152155 -0.90466899 3.8803401
0.44852 -0.926328 3.9440601
0.29064199 -0.85407197 4.1118698
0.0068897498 -0.887909 3.8798699
-0.34126601 -0.78193301 4.1030302
0.18043301 -0.89464003 3.93467
-0.442215 -0.876715 3.9842401
-0.32092899 -0.85597599 3.8912899
-0.206146 -0.87036997 3.8894
-0.138331 -0.85919899 3.9268601
-0.35689801 -0.78575999 4.1001101
0.102852 -0.90464902 3.8884101
0.23285 -0.91856599 3.8921599
-0.373941 -0.84434998 3.8831501
-0.224581 -0.873263 3.90012
-0.112817 -0.87573302 3.88357
-0.1344 -0.86429799 3.9305999
-0.052859802 -0.876041 3.8796
-0.319543 -0.79042101 4.1086402
0.017944699 -0.87142003 3.9393301
0.131789 -0.90347499 3.8850501
-0.296772 -0.84757298 3.9372799
-0.156497 -0.86987299 3.88446
-0.37676799 -0.78489202 4.1096401
-0.0252093 -0.88292098 3.87514
-0.00936497 -0.81820101 4.10322
0.226291 -0.85140699 4.1223798
-0.20014 -0.87329698 3.89485
-0.085424803 -0.87679201 3.8792
0.027953699 -0.886774 3.8780999
0.3714 -0.91792297 3.94402
-0.42399201 -0.87562197 3.9970901
-0.350171 -0.825975 3.9400301
-0.332515 -0.832753 3.9321899
-0.25993899 -0.84498399 3.9337499
-0.208009 -0.85146302 3.9537301
-0.123914 -0.86227202 3.94765
-0.102111 -0.866997 3.9305401
-0.0049769999 -0.88133699 3.87925
0.044719201 -0.89192802 3.88234
0.084790297 -0.898341 3.88975
0.105828 -0.90535098 3.89469
0.047110699 -0.881154 3.9425001
0.15006 -0.90666997 3.8861699
0.140477 -0.88817799 3.93279
0.251921 -0.914123 3.8854799
0.25141799 -0.90526998 3.93399
0.43643299 -0.92541802 3.9334099
0.19184799 -0.83599401 4.0952201
0.35198 -0.84505397 4.0768099
0.43812001 -0.86654502 4.0995998
-0.40316999 -0.81593102 3.9236
-0.241339 -0.86363798 3.8831999
-0.346517 -0.820508 3.9347501
-0.325553 -0.83193302 3.9433501
-0.177619 -0.85909897 3.9321699
-0.067712799 -0.87838501 3.8862801
-0.043272201 -0.877626 3.8794
-0.0486212 -0.86534703 3.9399099
-0.0192311 -0.873815 3.92202
0.36282 -0.916044 3.92589
0.58803803 -0.923334 3.9390299
0.57621402 -0.878429 4.0124302
-0.299292 -0.79266399 4.10535
-0.42925599 -0.80441999 3.8893199
-0.35127199 -0.83817399 3.93364
-0.28498301 -0.84689802 3.93032
-0.238331 -0.850977 3.9458499
-0.14921799 -0.86979699 3.8852301
-0.16680101 -0.856659 3.93764
-0.060515098 -0.87624198 3.8824799
-0.084948398 -0.869847 3.9377601
-0.32510701 -0.784275 4.10181
-0.0061938898 -0.87992299 3.92644
0.0836908 -0.90200102 3.8900299
0.110911 -0.90566403 3.8923199
0.18837 -0.90924698 3.89044
0.267308 -0.916803 3.8862
0.32137799 -0.92336601 3.8824699
0.43344799 -0.94410199 3.8980801
-0.31636199 -0.82861 3.9317901
-0.034031998 -0.87859702 3.87919
0.0249926 -0.89197099 3.88677
0.229873 -0.920425 3.89609
-0.210584 -0.86751503 3.8908401
-0.122527 -0.86207497 3.9426401
0.17248701 -0.89813399 3.93185
-0.33768901 -0.78349501 4.09302
0.17378899 -0.84562302 4.1330199
-0.33051699 -0.83093798 3.93821
-0.29221299 -0.78871697 4.0994
-0.25622699 -0.86175603 3.89066
-0.30861601 -0.84326601 3.93346
-0.089095101 -0.8804 3.8912899
-0.080532402 -0.85753298 3.9112699
-0.0108189 -0.89215899 3.8933101
0.00014576 -0.89147198 3.8889401
0.046354301 -0.89759398 3.8902199
0.14851999 -0.90407902 3.8865099
0.099196598 -0.87119299 3.90397
0.30333501 -0.88639498 3.8879299
0.40676501 -0.92323798 3.93483
-0.216721 -0.85140002 3.9264801
-0.049307801 -0.888982 3.89061
-0.074959502 -0.87025797 3.94555
0.023798799 -0.895419 3.8906
0.117808 -0.90525699 3.8899701
0.387732 -0.92884803 3.88239
-0.39930999 -0.78196502 4.1035099
0.160945 -0.90993202 3.8833301
0.235679 -0.90766501 3.87691
0.246923 -0.89997202 3.9236
0.30406001 -0.914913 3.87888
0.130867 -0.83229899 4.1098599
0.56401199 -0.93002701 3.9254401
0.50902998 -0.87324703 4.1008501
-0.33759001 -0.79196799 4.0992098
-0.283005 -0.83752698 3.94783
0.112189 -0.83838099 4.1175499
0.56114602 -0.88232797 4.07939
0.195455 -0.89750099 3.9542999
-0.012462 -0.86740601 3.94982
0.058482502 -0.87671202 3.9431601
0.478376 -0.88012201 4.1108599
0.149188 -0.83974499 4.10432
-0.0405633 -0.86054802 3.9024
-0.24573 -0.84591299 3.92208
0.23230401 -0.91903502 3.87274
0.236821 -0.843606 4.0970802
0.054313499 -0.82763898 4.11552
0.23897199 -0.848481 4.1125798
0.215561 -0.898947 3.9444201
-0.061907101 -0.869991 3.9408801
-0.36897001 -0.78507799 4.1145101
-0.182373 -0.85714501 3.93888
-0.44158599 -0.87330902 3.99597
-0.422216 -0.80892003 3.8905201
-0.278027 -0.86914498 3.8947501
-0.18831301 -0.87740201 3.8896999
0.247861 -0.92878199 3.8942599
0.40844601 -0.92422497 3.93207
-0.15936001 -0.87544799 3.8840001
-0.068301797 -0.89348 3.8931601
0.191596 -0.919631 3.89165
-0.0133631 -0.89742899 3.8940001
-0.041051399 -0.87303603 3.9224401
0.113272 -0.91004699 3.8958399
0.0751592 -0.88057202 3.92574
-0.32587701 -0.78870499 4.1008501
-0.31749099 -0.78841501 4.1040902
-0.052206099 -0.81317198 4.1003399
-0.42244399 -0.785649 3.9211099
0.188013 -0.84321702 4.1052799
0.40077001 -0.85650802 4.0892901
0.492852 -0.87795597 4.11303
0.60046899 -0.89362299 4.0019302
-0.0368203 -0.81747502 4.11093
-0.205552 -0.87604898 3.90136
-0.114528 -0.886069 3.8991399
0.360755 -0.90837598 3.92062
0.064675398 -0.82384998 4.10988
0.49951699 -0.93483198 3.94309
-0.130968 -0.85946298 3.92816
-0.155817 -0.87735701 3.8921101
-0.378371 -0.78153598 4.10851
-0.048326101 -0.862836 3.9164701
0.0282808 -0.903449 3.90042
0.235708 -0.91382998 3.8877201
0.126846 -0.90727901 3.89291
0.229719 -0.91927701 3.8922801
0.169751 -0.908068 3.8891499
0.047913801 -0.87487 3.9147401
0.221968 -0.90155703 3.9395001
-0.300978 -0.787063 4.10111
-0.109148 -0.86089998 3.9356799
0.33118999 -0.91699398 3.9365301
0.128346 -0.83275503 4.1107001
0.52547801 -0.92909402 3.9374199
-0.29473701 -0.84363699 3.93571
-0.38419199 -0.75425702 4.06073
-0.17089 -0.87384498 3.8943601
0.0299646 -0.823367 4.11024
-0.137059 -0.87994897 3.8970399
-0.0306253 -0.89617401 3.90169
-0.0289525 -0.87115198 3.93119
0.233382 -0.91884202 3.8880301
-0.39919499 -0.78226799 4.1080098
0.22374 -0.91988498 3.8879499
0.096114904 -0.89890403 3.8875101
0.134195 -0.91054499 3.8938501
0.30249301 -0.92115998 3.88201
0.487894 -0.94374901 3.8891399
0.423188 -0.90982902 3.90084
0.33274701 -0.92409801 3.8826799
0.210098 -0.91387302 3.8909299
0.14905199 -0.91183197 3.89187
0.367075 -0.86657101 4.12956
0.104566 -0.902924 3.8921299
0.071077697 -0.87119901 3.9154201
0.187351 -0.91503 3.89364
0.25510201 -0.92239302 3.89694
0.27709299 -0.92229599 3.89416
0.283519 -0.88520098 3.8991201
0.39611501 -0.94609803 3.9059501
-0.214316 -0.87319702 3.8984699
-0.29712 -0.78350198 4.1030698
0.31568599 -0.92238402 3.95122
-0.218413 -0.86019403 3.95611
-0.15218499 -0.86560899 3.9463
-0.079828203 -0.88062799 3.8854401
-0.053538501 -0.88415402 3.89241
0.21087299 -0.83925098 4.1051102
0.31814599 -0.84882402 4.1020598
-0.165783 -0.869919 3.8893499
0.0145652 -0.81679702 4.10288
0.109847 -0.82864398 4.1054702
0.412891 -0.92605799 3.93243
0.0161261 -0.89284801 3.89133
0.13200299 -0.88864601 3.92624
0.59516299 -0.89097202 3.95924
0.056112099 -0.90117401 3.89486
-0.073972397 -0.86923897 3.9208
-0.00370083 -0.89322698 3.89396
0.44451201 -0.86667198 4.10887
0.079763703 -0.90021598 3.88708
0.416253 -0.93910098 3.8908501
-0.0071044001 -0.81392002 4.1034799
0.33829099 -0.90343201 3.9140699
0.46483901 -0.91054302 3.9135599
0.230198 -0.83967799 4.1017599
0.235504 -0.845658 4.1089001
0.59367502 -0.92159897 3.9221301
0.220147 -0.88376403 3.90994
0.091351397 -0.83545899 4.1173
0.158032 -0.84720802 4.12744
0.345467 -0.91127998 3.9222901
0.073061801 -0.88607001 3.9412799
-0.128977 -0.862225 3.94011
-0.024185 -0.802746 4.08285
0.040076502 -0.899275 3.89731
0.154985 -0.89343297 3.9314301
0.0089482199 -0.819417 4.1108398
0.095892802 -0.82634801 4.1076298
-0.0591686 -0.86981201 3.93293
0.397883 -0.906214 3.9125099
0.202898 -0.91573501 3.8986001
0.223809 -0.92010403 3.8955901
0.34766501 -0.93376303 3.89555
0.13896701 -0.91414899 3.89995
0.203719 -0.84731799 4.1224799
0.31635401 -0.86475199 4.1311898
0.41957301 -0.86784899 4.1195598
0.500211 -0.95115399 3.89849
