# .PCD v0.7 - Point Cloud Data file format
VERSION 0.7
FIELDS x y z
SIZE 4 4 4
TYPE F F F
COUNT 1 1 1
WIDTH 1525
HEIGHT 1
VIEWPOINT 0 0 0 1 0 0 0
POINTS 1525
DATA ascii
-3.9431901 -0.051394299 0.74693298
-3.9307301 -0.041615602 0.79036701
-3.9298699 -0.0282754 0.84099901
-3.93086 -0.0481073 0.72831601
-3.9333999 -0.030539799 0.79496598
-3.93805 -0.048661798 0.70244199
-3.9370999 -0.0495064 0.67936498
-3.9423399 -0.080806203 0.52833903
-3.9421201 -0.052073199 0.64503801
-3.9317999 -0.059191 0.57763797
-3.9342899 -0.00054325699 0.82165599
-3.9360299 -0.0099169305 0.76121199
-3.9413199 -0.000830609 0.79645503
-3.9321001 -0.064562403 0.506715
-3.8467801 -0.209749 -0.13449
-3.9403701 -0.0942467 0.28754899
-3.9454801 -0.087667599 0.31382799
-3.93225 -0.0126044 0.641267
-3.9182701 -0.0225359 0.55479997
-3.9275701 0.028526399 0.792597
-3.9258399 0.032719899 0.81405801
-3.9392099 -0.070400201 0.277648
-3.84021 -0.15662 -0.14282
-3.9068301 0.0433079 0.718413
-3.9239399 0.055545501 0.71722698
-3.9332399 -0.0178391 0.25150001
-3.93102 -0.027308401 0.15872499
-3.9203701 0.064458497 0.65847701
-3.9230499 0.059702698 0.593633
-3.9284899 0.018802799 0.15436199
-3.9277699 0.0235416 0.18863399
-3.8232501 -0.0027771399 -0.189358
-3.8140299 0.026700299 -0.183805
-3.9116399 0.14366899 0.69247901
-3.9197099 0.155846 0.752487
-3.9225099 0.16200601 0.76499403
-3.9252901 0.12836701 0.135906
-3.9105899 0.159539 0.552697
-3.9173 0.17492799 0.60526299
-3.90485 0.154521 0.28856
-3.9308701 0.16502599 0.184416
-3.9146099 0.172582 0.042155001
-3.79127 0.184563 -0.196494
-3.79107 0.22078 -0.18422
-3.86796 0.27233899 0.53338099
-3.7827599 0.33865499 -0.203766
-3.88908 0.37986499 0.034115698
-3.8933301 0.36600301 0.56235999
-3.8956201 0.376762 0.60853797
-3.8922801 0.42403999 0.033169702
-3.8903501 0.40135401 0.56012899
-3.88673 0.404497 0.56406999
-3.66892 0.48289001 -0.256973
-3.66803 0.48954201 -0.259287
-3.6698599 0.58828902 -0.188884
-3.69484 0.56717497 0.098668203
-3.7158401 0.56589901 0.26949799
-3.7316501 0.51281297 0.63546503
-3.69842 0.599356 0.244581
-3.66377 0.72947502 -0.182504
-3.7351201 0.59978002 0.46452901
-3.7059 0.64012802 0.316845
-3.7357199 0.60174 0.53707999
-3.7312701 0.60192901 0.54578203
-3.7513001 0.59176999 0.623218
-3.6617899 0.71104401 0.15320601
-3.66254 0.71716303 0.19919001
-3.7379301 0.65024698 0.55644202
-3.94189 -0.060913999 0.54255003
-3.9172499 0.0378021 0.64779699
-3.9395399 0.034311101 0.54955697
-3.92224 0.133525 0.77194703
-3.91413 0.135286 0.79791999
-3.9063301 0.207013 0.81352597
-3.9105301 0.22516 0.74670303
-3.6675999 0.73184401 0.571513
-3.6980901 0.73335302 0.577344
-3.6900799 0.77829498 0.44679001
-3.7293501 0.71415699 0.65045601
-3.7093301 0.720761 0.61310899
-3.65499 0.81896102 0.230029
-3.7038701 0.70379102 0.58678102
-3.6903999 0.77158898 0.36486
-3.6944399 0.76399899 0.37910399
-3.7153699 0.69637299 0.57804501
-3.73525 0.67703801 0.61361498
-3.7334099 0.65490198 0.66959298
-3.7391601 0.63959098 0.70250303
-3.70557 0.72623801 0.36595699
-3.6698101 0.76846302 0.191865
-3.6647899 0.77872199 0.137971
-3.65747 0.74406898 0.227988
-3.68241 0.71454 0.323158
-3.70117 0.75909698 0.62855601
-3.68887 0.74905902 0.63442802
-3.67887 0.82897502 0.423722
-3.6763899 0.78649002 0.51056898
-3.65011 0.90406102 0.186085
-3.64484 0.88984799 0.206495
-3.9779301 -0.33791599 0.64282799
-3.8927701 -0.63351798 -0.044882599
-3.96928 -0.234194 0.80033398
-3.9591899 -0.228744 0.81465298
-3.88886 -0.574736 -0.092945904
-3.8935201 -0.53654701 -0.021389
-3.8879499 -0.55962402 -0.099132001
-3.8809299 -0.51641399 -0.099263199
-3.9577701 -0.143654 0.81135702
-3.8773201 -0.48218799 -0.123713
-3.9457901 -0.147028 0.79144502
-3.94858 -0.147626 0.77472401
-3.94333 -0.085067697 0.94026297
-3.9475801 -0.15102699 0.73578
-3.94368 -0.0883632 0.90480798
-3.94646 -0.154624 0.69457501
-3.8701501 -0.42863801 -0.116511
-3.95174 -0.157464 0.65164101
-3.9446299 -0.16686501 0.59064198
-3.8659699 -0.39482701 -0.115783
-3.9532599 -0.165269 0.574458
-3.9465101 -0.13477001 0.67283797
-3.9512801 -0.16366801 0.54295599
-3.9491799 -0.175117 0.48706201
-3.93997 -0.136805 0.61589599
-3.9386301 -0.107038 0.71372402
-3.9545901 -0.178425 0.41134301
-3.93397 -0.061523501 0.81765598
-3.9316599 -0.0216143 0.925098
-3.9358001 -0.064841799 0.75481498
-3.9414201 -0.063865401 0.75572902
-3.93046 -0.033375598 0.868756
-3.92662 -0.021639699 0.91209501
-3.8543501 -0.31603801 -0.128058
-3.9382901 -0.156351 0.40693599
-3.9298 -0.016909201 0.91207999
-3.93063 -0.0197777 0.88548899
-3.93436 -0.027579401 0.83849102
-3.93153 -0.020408001 0.86639601
-3.92523 -0.046423402 0.73647499
-3.9295101 -0.031034499 0.79288697
-3.9384799 -0.031761199 0.767039
-3.93363 -0.048805401 0.68375999
-3.9437301 -0.082339004 0.52404201
-3.93413 -0.060526799 0.61625898
-3.93173 -0.053173501 0.646887
-3.9398501 -0.074695103 0.53383899
-3.93347 -0.00913563 0.76385701
-3.9295001 -0.0648918 0.50922197
-3.93045 0.0094490601 0.804627
-3.9465101 -0.093602598 0.29308501
-3.9267099 -0.0098748896 0.67974901
-3.92208 0.036074501 0.88783598
-3.93051 -0.0183679 0.591187
-3.9225399 0.028074499 0.78990102
-3.93963 -0.070970297 0.28136
-3.92396 0.0505828 0.853692
-3.9242301 0.058686599 0.89298803
-3.9196 0.045778099 0.81162202
-3.92577 0.051156498 0.83356202
-3.92574 0.0564912 0.86006898
-3.9261501 0.062728502 0.890724
-3.8358901 -0.14357699 -0.142837
-3.91851 0.0450227 0.68619102
-3.9232399 0.035441101 0.600995
-3.93539 -0.0204829 0.24098299
-3.92295 0.097741403 0.853957
-3.9254799 0.104731 0.868415
-3.9291401 0.063119002 0.53849
-3.9192801 0.071164802 0.60200697
-3.92242 0.0110013 0.162258
-3.91909 0.10598 0.77049297
-3.92853 0.048386801 0.132733
-3.81481 0.0205035 -0.16355801
-3.9070899 0.14410099 0.546
-3.9135001 0.173225 0.83652103
-3.9128599 0.174776 0.85394901
-3.8092101 0.064417697 -0.167216
-3.9056699 0.162156 0.52017999
-3.90325 0.171051 0.57363701
-3.9158499 0.191121 0.79758698
-3.9098899 0.155737 0.28577
-3.9119899 0.18503 0.037152499
-3.79072 0.199968 -0.17888799
-3.79145 0.236007 -0.186125
-3.89238 0.26539499 0.50362498
-3.9166999 0.281014 0.56948102
-3.7853501 0.334254 -0.204951
-3.8905399 0.336979 0.54676402
-3.8829899 0.35152 0.27014899
-3.88765 0.381511 0.034251802
-3.7810099 0.38959301 -0.21602
-3.8900001 0.36975899 0.54207301
-3.8915999 0.37042901 0.60964298
-3.89271 0.372177 0.65307701
-3.77546 0.40773001 -0.198576
-3.8866401 0.40041101 0.60353899
-3.8999 0.45109099 0.125082
-3.88293 0.433323 0.48477599
-3.66312 0.54832602 -0.27605999
-3.66295 0.55041301 -0.24575099
-3.65341 0.55914098 -0.080123901
-3.69507 0.558447 0.092982098
-3.72208 0.56944001 0.31856099
-3.7499199 0.55310398 0.44019699
-3.71942 0.59886402 0.218078
-3.71682 0.60169798 0.224629
-3.7307999 0.57763499 0.380422
-3.7625799 0.56043601 0.56192303
-3.7084 0.61184603 0.43032399
-3.7052 0.65088302 0.30533201
-3.7498901 0.59220302 0.621948
-3.7634001 0.57756698 0.69495302
-3.74435 0.61648101 0.53646898
-3.7483799 0.578879 0.711815
-3.66975 0.715496 0.14336599
-3.65376 0.70958197 0.16430999
-3.72331 0.64630502 0.57066298
-3.9161 0.22555199 0.516608
-3.7206099 0.73168999 0.76089901
-3.67311 0.82212102 0.52757502
-3.7062399 0.79320002 0.619241
-3.6279399 0.902367 0.281919
-3.65903 0.88492602 0.34244999
-3.90838 -0.700409 -0.095845103
-3.9734399 -0.33848801 0.64477098
-3.9681101 -0.33455199 0.641137
-3.95941 -0.23217 0.80109
-3.95767 -0.22272301 0.81066501
-3.89974 -0.62458801 -0.108409
-3.9430499 -0.130858 0.98709601
-3.94294 -0.129741 0.98965597
-3.8882201 -0.588153 -0.084509403
-3.9431601 -0.122304 0.98664403
-3.8849001 -0.51945698 -0.088015899
-3.9554601 -0.139898 0.81432199
-3.94243 -0.065090597 0.99046803
-3.8781099 -0.47742 -0.11298
-3.94982 -0.149188 0.75072199
-3.9476199 -0.151517 0.73083299
-3.9426701 -0.056837 0.989972
-3.8745601 -0.442947 -0.1124
-3.95136 -0.15537401 0.67435902
-3.9503801 -0.158049 0.65144002
-3.86935 -0.43060499 -0.124722
-3.94504 -0.13527 0.70282102
-3.9487 -0.16051701 0.61240202
-3.9302299 -0.094549403 0.796655
-3.9455099 -0.102335 0.73810202
-3.9565401 -0.170406 0.50981098
-3.9552 -0.160151 0.54171997
-3.95453 -0.17355999 0.48196599
-3.86327 -0.37024799 -0.120861
-3.9548299 -0.180686 0.42003101
-3.9305601 -0.060027301 0.813402
-3.66941 0.78974497 0.57831502
-3.9275999 -0.019605899 0.94318402
-3.9463799 -0.15152 0.49683899
-3.9284501 -0.018328501 0.93330199
-3.9561 -0.152023 0.47150499
-3.92577 -0.020440301 0.91354799
-3.8554201 -0.32124999 -0.122255
-3.9361701 -0.054575302 0.74888599
-3.9256599 -0.020880099 0.86799502
-3.92542 -0.0268717 0.83199698
-3.9282899 -0.0309528 0.783508
-3.93103 -0.0270612 0.796009
-3.9272599 0.0144159 0.94468898
-3.95982 -0.205428 0.069576599
-3.92418 0.016088801 0.87392402
-3.9395001 -0.065192901 0.53457302
-3.92995 -0.0068962998 0.76503402
-3.92749 0.0096674198 0.79418403
-3.92347 0.0391853 0.897102
-3.84395 -0.203126 -0.069125198
-3.85127 -0.20979699 -0.13437
-3.9261501 -0.0124973 0.64404601
-3.9154501 0.058883801 0.94881099
-3.94119 -0.086656399 0.297589
-3.9156001 0.054404002 0.91260397
-3.9514301 -0.061653599 0.37064299
-3.92524 -0.0266173 0.53873402
-3.9233999 0.0250961 0.76314002
-3.9237101 0.028372699 0.77708501
-3.91745 0.055720799 0.89916301
-3.84073 -0.18666799 -0.13252901
-3.91821 0.048855498 0.85009599
-3.93325 -0.071602799 0.28261
-3.9161501 0.046409201 0.82101703
-3.91503 0.056115702 0.86511099
-3.92097 0.077119596 0.93680799
-3.9217801 0.043777101 0.695095
-3.91818 0.093927003 0.94251102
-3.9366801 -0.044038799 0.188522
-3.9165299 0.036904 0.61485201
-3.8295701 -0.110943 -0.14351501
-3.83059 -0.102812 -0.10158
-3.94226 -0.018993 0.243929
-3.9322801 -0.025206299 0.183991
-3.91326 0.062287699 0.64362901
-3.92079 0.112708 0.89058101
-3.9102499 0.063001402 0.59318399
-3.9131501 0.109216 0.85447598
-3.9191301 0.110557 0.83174801
-3.9156201 0.104945 0.77612001
-3.9307401 0.0201346 0.131429
-3.9179001 0.14400101 0.911686
-3.9198999 0.145456 0.91890401
-3.9162199 0.13997 0.860062
-3.9133201 0.12751 0.74950999
-3.91855 0.136941 0.80793399
-3.9003899 0.13147201 0.69551098
-3.8136301 0.0084933704 -0.158253
-3.9104199 0.122582 0.57788301
-3.91752 0.162807 0.87508702
-3.9073901 0.150534 0.761576
-3.9037399 0.168598 0.80848598
-3.9014399 0.17228299 0.84379399
-3.90903 0.179373 0.89243501
-3.89675 0.16528 0.75330102
-3.9022999 0.16987 0.78467602
-3.8097 0.052905399 -0.163332
-3.9057901 0.160365 0.60720402
-3.9008901 0.161731 0.58157903
-3.9070699 0.145578 0.29418299
-3.90659 0.199223 0.858904
-3.8015001 0.103708 -0.166474
-3.9085701 0.20837601 0.76989597
-3.9082501 0.208598 0.773431
-3.8998201 0.210412 0.816526
-3.9091301 0.214872 0.84868902
-3.8940001 0.221958 0.536479
-3.88657 0.23011 0.62461001
-3.8952501 0.21666899 0.223295
-3.7895899 0.21817 -0.184773
-3.8899701 0.27002501 0.50396901
-3.89256 0.27563101 0.50500298
-3.7897799 0.247142 -0.187732
-3.90485 0.28940099 0.59016103
-3.88937 0.291379 0.67174
-3.7867301 0.318088 -0.196097
-3.89306 0.33848801 0.56760001
-3.8921001 0.349251 0.65462101
-3.8848901 0.369017 0.65779901
-3.8931899 0.42795399 0.031346299
-3.87163 0.377471 0.80210298
-3.8837099 0.420091 0.49347499
-3.87988 0.41517001 0.54322702
-3.6728201 0.43678999 -0.297773
-3.8757501 0.41775 0.60736603
-3.8758099 0.43717501 0.49098301
-3.87679 0.43704399 0.49513999
-3.8734701 0.43917099 0.72009099
-3.7253001 0.52501798 0.341948
-3.70227 0.55629599 0.205616
-3.7453401 0.54996598 0.44269499
-3.7123599 0.59117597 0.300044
-3.7257299 0.57707298 0.389312
-3.7603199 0.56054997 0.56151301
-3.7217 0.59241802 0.375155
-3.7541399 0.57270998 0.51428097
-3.7293301 0.60042799 0.46894601
-3.7771599 0.55309498 0.76950997
-3.7525401 0.58843201 0.61889702
-3.6914101 0.69652802 0.111427
-3.7623899 0.57624298 0.69721699
-3.74316 0.59138101 0.625934
-3.7404001 0.61625099 0.53737003
-3.73488 0.616804 0.544222
-3.70893 0.65620202 0.40680099
-3.6895399 0.647672 0.43253201
-3.7749801 0.582241 0.78385001
-3.73347 0.64873803 0.51142401
-3.73493 0.63136297 0.592035
-3.7286401 0.64908803 0.56174499
-3.68383 0.699682 0.345112
-3.67997 0.71579301 0.33046901
-3.7388799 0.64753598 0.643269
-3.7474699 0.64476901 0.68576097
-3.74053 0.64369398 0.70448601
-3.72313 0.67341602 0.62333798
-3.7632999 0.656232 0.73131901
-3.7495201 0.66403103 0.73363
-3.68416 0.75862598 0.38908201
-3.7151999 0.704018 0.58688003
-3.6965401 0.75352103 0.550807
-3.70771 0.74731499 0.60755998
-3.69719 0.79107201 0.489097
-3.6916101 0.712749 0.70340598
-3.66836 0.77401501 0.52744198
-3.66924 0.81146199 0.43900099
-3.684 0.79038298 0.54587799
-3.64715 0.88953298 0.268543
-3.8901601 0.33754799 0.57835197
-3.8938401 0.28183299 0.56364101
-3.88697 0.27373499 0.69920897
-3.9005101 0.27022001 0.61768299
-3.89763 0.26886499 0.58939499
-3.9087999 0.157906 0.52931702
-3.9237399 0.130906 0.62288201
-3.9507999 0.064002499 0.222683
-3.93116 -0.00366861 0.812684
-3.6600201 0.86731499 0.62446398
-3.7081201 0.842897 0.67363101
-3.6784301 0.89292502 0.58465302
-3.8656299 0.42196599 0.53931701
-3.8724501 0.43288499 0.66178697
-3.86269 0.438665 0.75630802
-3.7086599 0.779329 0.80839097
-3.6970999 0.82478398 0.69745898
-3.6281099 0.94363999 0.392887
-3.91822 -0.96989101 -0.192195
-3.9751799 -0.33712399 0.66112399
-3.97294 -0.326709 0.64751601
-3.9611499 -0.223951 0.79797697
-3.9476399 -0.122222 0.99751401
-3.94419 -0.113413 0.98989701
-3.9497099 -0.114908 0.958067
-3.88536 -0.58251297 -0.057391599
-3.9400699 -0.097189501 0.97979498
-3.94484 -0.14605901 0.793751
-3.8833799 -0.51518101 -0.102175
-3.8886099 -0.481031 -0.0213905
-3.9407799 -0.054917298 0.989941
-3.9507699 -0.153731 0.73722398
-3.9477401 -0.15177301 0.74277198
-3.95297 -0.1495 0.73422402
-3.9549401 -0.148151 0.73701203
-3.94591 -0.120393 0.80756003
-3.93379 -0.0808836 0.907781
-3.94331 -0.124388 0.78620702
-3.8783 -0.48436099 -0.110582
-3.9502499 -0.15458199 0.69609803
-3.87835 -0.461059 -0.095288098
-3.66208 0.876472 0.55308598
-3.9539499 -0.161584 0.62071902
-3.95784 -0.165169 0.56408298
-3.9505999 -0.16842499 0.54158998
-3.94697 -0.13953 0.62189299
-3.8654799 -0.41055101 -0.116227
-3.9420199 -0.104382 0.69085097
-3.95523 -0.17259 0.47794101
-3.94293 -0.102784 0.68013901
-3.8645201 -0.37733901 -0.118164
-3.95911 -0.17633 0.429988
-3.92838 -0.020421 0.88097203
-3.9337201 -0.0594569 0.74970102
-3.92944 -0.0279261 0.84509701
-3.93102 -0.0237452 0.856915
-3.9328899 -0.055021401 0.74844998
-3.9321799 -0.022900701 0.845402
-3.9540801 -0.163572 0.39399001
-3.9335499 -0.044589099 0.76487201
-3.93308 -0.030135499 0.779778
-3.9285901 0.0131057 0.916803
-3.92697 -0.049451798 0.70609599
-3.9266601 0.0041587199 0.87591702
-3.85025 -0.31197399 -0.117932
-3.9308801 -0.00141426 0.81233901
-3.92083 0.045005601 0.96980399
-3.94049 -0.078443401 0.535366
-3.9174299 0.040085498 0.941724
-3.91942 0.042466901 0.948726
-3.9390199 -0.055739999 0.593418
-3.9235799 0.039102498 0.921628
-3.9361501 -0.061326999 0.53724802
-3.91941 0.040927 0.90117902
-3.91888 0.060029998 0.96785402
-3.8462701 -0.25718901 -0.12676799
-3.9166801 0.058509398 0.94969898
-3.70683 0.80353999 0.75974
-3.92747 -0.0109448 0.64381498
-3.92313 0.032745101 0.80703002
-3.94643 -0.097467199 0.290346
-3.9232299 0.0247421 0.760019
-3.92239 0.0304597 0.78185201
-3.91926 0.050544899 0.85865301
-3.9177999 0.050374702 0.84236503
-3.9328499 -0.0200749 0.54527599
-3.91925 0.047714598 0.81430697
-3.9205101 0.050294399 0.82349402
-3.9203 0.075226597 0.903593
-3.9142799 0.083283298 0.93874699
-3.8366699 -0.194564 -0.13196
-3.9187701 0.067919098 0.85906202
-3.9166999 0.072362699 0.87799001
-3.9200699 0.047672201 0.72005099
-3.92116 0.057537999 0.76041502
-3.91769 0.042652499 0.67994499
-3.9151001 0.0435731 0.685615
-3.93606 -0.035580199 0.28056499
-3.92154 0.035955999 0.60427803
-3.83146 -0.133259 -0.14257
-3.91258 0.117983 0.93527699
-3.9409599 -0.0193616 0.26126099
-3.91084 0.117468 0.91603202
-3.91662 0.063731901 0.6401
-3.9154999 0.0934003 0.78039902
-3.9167299 0.115658 0.88400602
-3.9139099 0.063711002 0.61790401
-3.9152601 0.111923 0.84754401
-3.8326299 -0.092688099 -0.101901
-3.93239 -0.021329399 0.162715
-3.9161301 0.0589891 0.56792003
-3.91167 0.107805 0.80967098
-3.9145801 0.14129899 0.869196
-3.9154899 0.13686 0.82122898
-3.91396 0.128003 0.74892098
-3.9160199 0.133836 0.779558
-3.9088199 0.16900501 0.91813803
-3.9122601 0.179391 0.953991
-3.82006 -0.00997095 -0.150622
-3.9063399 0.171443 0.86166501
-3.91768 0.175898 0.87668502
-3.9256301 0.092974 0.29404801
-3.9072499 0.170784 0.82924199
-3.9035299 0.16707399 0.78054202
-3.9001801 0.166814 0.75282103
-3.81354 0.026373399 -0.15993799
-3.9116001 0.203347 0.910133
-3.9038501 0.160514 0.56093699
-3.90925 0.192912 0.80313498
-3.8998599 0.206128 0.91936702
-3.8111401 0.058371399 -0.148021
-3.90101 0.159509 0.516406
-3.9007399 0.17172199 0.57347399
-3.90218 0.175815 0.60468501
-3.80756 0.071325697 -0.16188399
-3.9050901 0.212236 0.86563498
-3.8979199 0.21456601 0.89733797
-3.8938501 0.205174 0.78868902
-3.90343 0.21060701 0.81942999
-3.9196801 0.168111 0.36955601
-3.89381 0.20423201 0.74185801
-3.89838 0.209512 0.74121398
-3.92398 0.165841 0.22691301
-3.90256 0.231242 0.619362
-3.89222 0.263953 0.556822
-3.8917999 0.26654401 0.60747498
-3.89644 0.26762301 0.60874599
-3.8873 0.26548299 0.50929999
-3.8861301 0.27288499 0.66434598
-3.90043 0.27809399 0.70628297
-3.7920201 0.22539499 -0.18097401
-3.89346 0.32432699 0.66876799
-3.8877399 0.33632299 0.43735299
-3.7860999 0.319722 -0.195732
-3.8875501 0.34167299 0.38965699
-3.88484 0.340799 0.45937699
-3.8861201 0.34079701 0.549299
-3.8817301 0.339508 0.62420797
-3.8857901 0.34039 0.64658999
-3.9054101 0.351098 0.41877601
-3.8870101 0.34536901 0.61886901
-3.89007 0.345963 0.63790601
-3.8713901 0.349738 0.27926701
-3.89275 0.352864 0.840011
-3.8806701 0.36359501 0.54839098
-3.7829101 0.36303601 -0.212712
-3.88117 0.396227 0.56736898
-3.8824501 0.39257801 0.65639299
-3.8814299 0.39913601 0.60539299
-3.86462 0.412058 0.35996401
-3.8819699 0.420737 0.37867099
-3.8740799 0.42714399 0.56395602
-3.8773301 0.437729 0.49217799
-3.8638999 0.42889401 0.62861699
-3.8676 0.43387401 0.68643999
-3.8713701 0.437148 0.708552
-3.67362 0.48937199 -0.26359099
-3.66133 0.50778502 -0.268309
-3.66431 0.56402898 -0.26373401
-3.70488 0.55740499 0.203914
-3.6491899 0.51121598 0.45569301
-3.7391801 0.541789 0.453897
-3.7191701 0.56855202 0.31865999
-3.7381899 0.57841498 0.40288201
-3.7066 0.60513002 0.236939
-3.7558899 0.558281 0.56226099
-3.75421 0.57503498 0.51694697
-3.68716 0.65498698 0.063211396
-3.7597499 0.57193702 0.69597101
-3.7302001 0.60047001 0.54432899
-3.7625699 0.55175102 0.80722702
-3.77688 0.54933 0.837614
-3.74209 0.59301502 0.629179
-3.7518599 0.58121097 0.70982802
-3.7825899 0.58533001 0.77766597
-3.7209301 0.66697103 0.379154
-3.757 0.59933299 0.71679902
-3.73067 0.62271798 0.60496902
-3.7723 0.60121602 0.770441
-3.66417 0.71893501 0.198558
-3.71981 0.65655297 0.50663197
-3.72458 0.63947302 0.57827801
-3.6710999 0.69032401 0.35278201
-3.7789199 0.64344001 0.699377
-3.7352099 0.64710802 0.64872801
-3.7604599 0.62304598 0.76462901
-3.7888401 0.61155301 0.838853
-3.69491 0.702214 0.43479899
-3.7439001 0.642757 0.70031601
-3.7265 0.671709 0.61861098
-3.7358601 0.659284 0.67151302
-3.7281899 0.67568398 0.61983901
-3.73224 0.660317 0.67633897
-3.7495601 0.657049 0.73004198
-3.7200601 0.70691299 0.55855
-3.74613 0.65783203 0.74632901
-3.69186 0.75711697 0.379253
-3.7135501 0.70365298 0.58714098
-3.7437601 0.67839998 0.69981998
-3.7630401 0.67522103 0.80246103
-3.70662 0.73442698 0.57913202
-3.75915 0.68083203 0.79137301
-3.68239 0.77398002 0.46156001
-3.7131701 0.76264602 0.53676403
-3.7033899 0.779459 0.52380699
-3.68749 0.79033399 0.50009501
-3.7105999 0.73343903 0.68872499
-3.7193301 0.73080802 0.70424801
-3.64306 0.90125 0.191006
-3.63871 0.90061998 0.201359
-3.7012899 0.76257497 0.62945098
-3.6389501 0.88766402 0.28419501
-3.6614299 0.86196601 0.39326999
-3.7251699 0.740695 0.76176202
-3.7242301 0.74133599 0.76736099
-3.6593101 0.812397 0.53742701
-3.6601 0.90498 0.315514
-3.7460401 0.75829798 0.76026499
-3.6760099 0.83514202 0.51436597
-3.6709099 0.81647402 0.55625701
-3.6954701 0.79560399 0.63015002
-3.7153499 0.73929298 0.81052703
-3.7028401 0.78663099 0.70014799
-3.69332 0.82733101 0.61916202
-3.7005501 0.79230899 0.70799601
-3.7114501 0.78687298 0.76659799
-3.6558599 0.86675799 0.545376
-3.6944799 0.83034098 0.67555797
-3.7135301 0.78026801 0.80376601
-3.6278999 1.0451699 0.148642
-3.6695099 0.894633 0.51880199
-3.7237999 0.79482001 0.84798801
-3.6945 0.89174497 0.590222
-3.6668401 0.87277001 0.617185
-3.6896999 0.827043 0.716317
-3.63627 0.93109399 0.43764099
-3.7035401 0.80079299 0.76209903
-3.6274199 0.94349998 0.39516601
-3.72225 0.787386 0.79860699
-3.6972301 0.85027897 0.812644
-3.7195599 0.79565197 0.76449299
-3.63113 1.04688 0.141689
-3.62852 1.00993 0.46584001
-3.7369299 0.75342602 0.85798299
-3.6586001 0.86706501 0.54299498
-3.72157 0.75068998 0.83868998
-3.69923 0.79685098 0.70885199
-3.7116599 0.88031203 0.52806097
-3.7044101 0.81054699 0.86021399
-3.6654601 0.93473399 0.57826102
-3.6796899 0.87457299 0.69969302
-3.68226 0.87444299 0.69526798
-3.6893001 0.843615 0.75509602
-3.7046599 0.78933603 0.69886899
-3.9646201 -0.230574 0.80660897
-3.9499099 -0.124509 0.99616897
-3.9075999 -0.67982203 -0.098062702
-3.94625 -0.119295 0.99892199
-3.9461601 -0.097143203 0.99466699
-3.94063 -0.104801 0.962439
-3.8931899 -0.6024 -0.098515198
-3.94841 -0.14455201 0.79512298
-3.9372599 -0.0721616 0.96229398
-3.95467 -0.152803 0.75221997
-3.9560201 -0.148184 0.76265502
-3.95328 -0.150353 0.73469001
-3.95469 -0.153845 0.68884599
-3.87835 -0.47854501 -0.106509
-3.95875 -0.15800899 0.63785398
-3.95665 -0.158299 0.62387103
-3.9400101 -0.094422601 0.79105997
-3.94453 -0.13279501 0.67878598
-3.87111 -0.439899 -0.113884
-3.9493699 -0.137615 0.63730401
-3.93348 -0.10519 0.71393299
-3.93187 -0.019992201 0.93019003
-3.95474 -0.172003 0.498254
-3.9569399 -0.17414901 0.45855901
-3.9532599 -0.18301401 0.417649
-3.70417 0.80968702 0.82745898
-3.93086 -0.0202542 0.88350701
-3.9554801 -0.18008301 0.40748599
-3.9581201 -0.17621499 0.41763401
-3.9347899 -0.0251376 0.85607499
-3.85899 -0.36679199 -0.116396
-3.94489 -0.118891 0.56951702
-3.92274 0.0125831 0.93294299
-3.8596799 -0.33379301 -0.0923687
-3.95471 -0.13006601 0.48253199
-3.93348 -0.044805601 0.74528301
-3.9344299 -0.048440501 0.68881202
-3.9326301 -0.0234151 0.76722902
-3.92839 -0.0045696399 0.813389
-3.92135 0.037561599 0.94870597
-3.9212301 0.044748601 0.97136003
-3.85323 -0.30374601 -0.123764
-3.71683 0.76272899 0.74766701
-3.9493699 -0.133627 0.358996
-3.93189 -0.0186993 0.73727
-3.92943 -0.0062615601 0.76328599
-3.9226999 0.038506899 0.91258901
-3.9214699 0.038344599 0.88523799
-3.9181099 0.057802901 0.95212001
-3.9219799 0.063749902 0.970384
-3.92047 0.039575499 0.875682
-3.84534 -0.244451 -0.113057
-3.9198699 0.032109901 0.82041103
-3.94714 -0.106969 0.29731101
-3.9235599 0.033268299 0.80706602
-3.9200699 0.079113498 0.97166401
-3.9324501 -0.0142222 0.61537898
-3.9237499 0.050361998 0.83689702
-3.92239 0.0563117 0.85935098
-3.9149301 0.077040799 0.93896699
-3.83834 -0.217407 -0.128768
-3.9378099 -0.019228499 0.55518401
-3.9176099 0.083468303 0.94692498
-3.9229801 0.0459852 0.78823102
-3.9214699 0.074981399 0.89829803
-3.91573 0.072632603 0.87688798
-3.8395801 -0.192965 -0.12861
-3.9224701 0.046994399 0.72047198
-3.92325 0.056356899 0.75755697
-3.92349 0.045528602 0.694552
-3.91819 0.088905297 0.85737097
-3.91219 0.120189 0.95936602
-3.9114799 0.116584 0.91055202
-3.91451 0.117948 0.91454297
-3.92167 0.065902002 0.657152
-3.9177999 0.111017 0.863289
-3.9193001 0.13330901 0.962771
-3.83184 -0.116622 -0.139598
-3.93713 -0.0193546 0.232049
-3.9237499 0.071443498 0.65841699
-3.9121301 0.107755 0.81358999
-3.9133699 0.104709 0.77765602
-3.9224401 0.067287497 0.56755501
-3.91747 0.118729 0.82100201
-3.91926 0.14931899 0.94978899
-3.91681 0.140902 0.86984998
-3.91377 0.139358 0.84303898
-3.8231001 -0.0479885 -0.145712
-3.9049499 0.131418 0.76215202
-3.9164 0.167597 0.92894799
-3.9179201 0.162176 0.87477601
-3.91153 0.168475 0.91688401
-3.9294 0.041956201 0.137621
-3.9072199 0.134086 0.66982001
-3.90769 0.138877 0.69798899
-3.91061 0.167199 0.86431903
-3.9086599 0.1787 0.91206998
-3.90783 0.17919999 0.89206898
-3.8143699 0.00353246 -0.157013
-3.9189601 0.093754403 0.30612499
-3.9138501 0.164867 0.76829302
-3.9032199 0.173265 0.83400398
-3.9042001 0.169799 0.78296602
-3.9112501 0.150554 0.61563802
-3.8998301 0.168283 0.74882102
-3.91518 0.090360299 0.15945899
-3.9092801 0.149757 0.57823801
-3.9119699 0.140285 0.47127599
-3.9086699 0.20400301 0.92893398
-3.90589 0.16111299 0.59147102
-3.9059401 0.16363899 0.60988599
-3.9034801 0.189852 0.80483902
-3.9072101 0.15954199 0.54016399
-3.9031999 0.194279 0.80694598
-3.8998001 0.20133901 0.86466599
-3.8073399 0.063814901 -0.16184901
-3.91206 0.14308099 0.216665
-3.91113 0.169485 0.39371699
-3.9003401 0.207302 0.74294001
-3.9068401 0.223777 0.76343298
-3.9005499 0.228129 0.81731403
-3.8022101 0.116292 -0.16591901
-3.90727 0.164472 0.120041
-3.91153 0.185488 0.0421746
-3.8965499 0.231566 0.624852
-3.9005001 0.235691 0.66482198
-3.89959 0.26434901 0.51844001
-3.89099 0.26742601 0.60681701
-3.8952501 0.268365 0.60824198
-3.8895099 0.26666901 0.50387001
-3.9039099 0.279993 0.70858598
-3.7924199 0.234782 -0.181153
-3.8917501 0.29471299 0.69898599
-3.7900901 0.249213 -0.184486
-3.88992 0.32018599 0.66731501
-3.8952501 0.324444 0.54075903
-3.8926599 0.34411901 0.38731399
-3.8892 0.34277499 0.54828
-3.8822 0.34095699 0.62706202
-3.89292 0.35044801 0.273642
-3.8908601 0.34722 0.65747499
-3.88692 0.355084 0.26314899
-3.78299 0.35213801 -0.208986
-3.88345 0.37228 0.65747702
-3.8787799 0.37919 0.5474
-3.8889599 0.41144899 0.0296894
-3.6289101 1.07552 0.212695
-3.77737 0.41779801 -0.218659
-3.88079 0.407215 0.56912899
-3.89363 0.45128801 0.044422399
-3.8757501 0.42357901 0.51415902
-3.8730199 0.42120299 0.54127598
-3.8771701 0.41849399 0.59899598
-3.87409 0.43321699 0.63408703
-3.8791499 0.436566 0.662103
-3.86534 0.447514 0.64670599
-3.87624 0.44267499 0.72847301
-3.8708701 0.44286901 0.75521499
-3.88115 0.45743701 0.673244
-3.6597199 0.55508 -0.27961901
-3.7454901 0.53323698 0.384725
-3.7188001 0.56456101 0.33467701
-3.7321899 0.59942001 0.27605799
-3.75735 0.55783302 0.55874401
-3.6785901 0.63501197 0.070504799
-3.6908 0.60032803 0.26722601
-3.7162099 0.59037 0.42794901
-3.73614 0.59624201 0.513448
-3.7705801 0.55020601 0.78722697
-3.7920101 0.55315399 0.81702101
-3.7578001 0.573129 0.701258
-3.7526 0.59807301 0.62039798
-3.7606699 0.59146398 0.67536402
-3.7906899 0.55708599 0.85742098
-3.7819099 0.558474 0.86860502
-3.68764 0.66864997 0.322754
-3.7666299 0.59463102 0.71676397
-3.7104199 0.65920901 0.40698501
-3.71912 0.63051999 0.532359
-3.75038 0.611615 0.64464098
-3.7305901 0.63057703 0.59467202
-3.7605801 0.59216899 0.79049897
-3.66394 0.72311199 0.20229299
-3.70632 0.67167699 0.443378
-3.72492 0.64862901 0.566625
-3.7172401 0.64783102 0.57643801
-3.75246 0.678415 0.56346101
-3.7504699 0.64846998 0.68000299
-3.7679701 0.60527599 0.85978401
-3.7807 0.60168201 0.88535303
-3.7776301 0.60293102 0.88862503
-3.7409599 0.67233402 0.64096099
-3.7386401 0.65202701 0.70628899
-3.7646699 0.60450298 0.89103901
-3.7274799 0.67832702 0.62037498
-3.7634201 0.60573798 0.89591098
-3.71069 0.701774 0.55322099
-3.6954601 0.758111 0.371151
-3.71873 0.69786501 0.59936398
-3.73983 0.65698999 0.749412
-3.7287199 0.70011801 0.64996302
-3.7119801 0.74053901 0.56006002
-3.71245 0.72357398 0.61027598
-3.75107 0.668598 0.80737799
-3.75594 0.67013597 0.80737102
-3.7584701 0.66697699 0.84684998
-3.68032 0.86710697 0.2464
-3.6888299 0.755328 0.58665597
-3.7125001 0.72536498 0.68954802
-3.7500401 0.67915899 0.84913599
-3.63851 0.89783698 0.19354901
-3.69328 0.770096 0.60239297
-3.7448599 0.69180101 0.85233498
-3.70206 0.785532 0.57958901
-3.7105801 0.74983001 0.68912899
-3.63538 0.88827598 0.29152101
-3.6612501 0.85849798 0.38907599
-3.7298501 0.74357998 0.756284
-3.6552501 0.89828199 0.317929
-3.6979699 0.79241902 0.625862
-3.7234499 0.73535901 0.78776097
-3.6717701 0.81569302 0.55636698
-3.7010701 0.80773997 0.59991902
-3.67026 0.83343297 0.52139902
-3.71591 0.74080801 0.78403097
-3.73596 0.73013699 0.82637799
-3.7300701 0.740165 0.80488998
-3.6934099 0.847552 0.80524802
-3.69138 0.88414198 0.861606
-3.9520099 -0.149349 0.74065602
-3.93132 -0.021634599 0.88387102
-3.9363401 -0.0448335 0.76511002
-3.9187801 0.045489199 0.97019798
-3.84618 -0.24807601 -0.117467
-3.68308 0.88091201 0.85206199
-3.92116 0.0571559 0.82024503
-3.8389101 -0.19636799 -0.12973399
-3.68853 0.90618902 0.81172901
-3.90939 0.19097701 0.800152
-3.9058599 0.15796199 0.54389298
-3.87924 0.38791201 0.54478198
-3.70555 0.85792798 0.90141898
-3.71415 0.75284499 0.683649
-3.6561301 1.02951 0.564605
-3.71084 0.75975502 0.754659
-3.7074299 0.79923701 0.69810402
-3.70015 0.851897 0.898893
-3.6733 0.96438098 0.67772198
-3.724 0.80865699 0.88494301
-3.6187401 1.0926 0.24057101
-3.6912899 0.85799003 0.74514502
-3.59095 1.1431299 0.30059299
-3.6635799 0.94865102 0.53501898
-3.6930499 0.90064102 0.79232699
-3.6540201 0.94416302 0.68922502
-3.70751 0.85229897 0.87282503
-3.63305 0.99569702 0.563537
-3.6175799 1.0833499 0.37858301
-3.7207401 0.84557301 0.878111
-3.7091601 0.86355603 0.83723903
-3.6910601 0.86331701 0.82573599
-3.6840601 0.876867 0.79034901
-3.97223 -0.33478999 0.64235902
-3.9672201 -0.23433501 0.80111003
-3.9619601 -0.220999 0.81684703
-3.8993199 -0.63305199 -0.096969299
-3.9374101 -0.0709408 0.981381
-3.9370501 -0.077291504 0.92680103
-3.8915999 -0.56015402 -0.10355
-3.8912301 -0.54870099 -0.079059802
-3.94596 -0.149428 0.76257998
-3.9528 -0.147323 0.76583999
-3.9407401 -0.079492502 0.91266
-3.94665 -0.120302 0.81475002
-3.9479401 -0.126229 0.770886
-3.8861301 -0.52230102 -0.112304
-3.9291999 -0.049636401 0.93514001
-3.9311199 -0.0462825 0.94224799
-3.95505 -0.154661 0.68379003
-3.8863599 -0.49772799 -0.094845898
-3.95192 -0.161764 0.63226199
-3.9532299 -0.15939 0.62504202
-3.95821 -0.156468 0.63077599
-3.9545801 -0.136631 0.67812097
-3.9311399 -0.016743699 0.936414
-3.87497 -0.44843999 -0.113885
-3.95871 -0.166209 0.55487102
-3.9451599 -0.099846803 0.72026598
-3.9549699 -0.168411 0.52231401
-3.87323 -0.41467699 -0.112219
-3.94629 -0.174174 0.48073599
-3.9325399 -0.025182899 0.86383301
-3.86623 -0.409347 -0.117919
-3.95591 -0.15563799 0.510665
-3.9550099 -0.144888 0.53858203
-3.8675101 -0.391128 -0.113948
-3.9298799 -0.025624201 0.82976401
-3.92504 -0.00045055899 0.89736199
-3.92258 0.014529 0.91630799
-3.92137 0.0330179 0.923639
-3.9180901 0.040809199 0.94663399
-3.9223499 0.036540799 0.92206597
-3.93033 -0.0136664 0.76325798
-3.92101 0.039989401 0.90948701
-3.9184799 0.058321901 0.96382898
-3.9216399 0.027581399 0.86082101
-3.92153 0.038508199 0.88097101
-3.9407499 -0.058659401 0.56750101
-3.8487101 -0.28806901 -0.11719
-3.7135 0.79222399 0.87561798
-3.91363 0.075484797 0.97205102
-3.70766 0.79382002 0.86822402
-3.9267399 0.021206001 0.75858802
-3.9249101 0.051289599 0.85507202
-3.9173601 0.064806297 0.88823903
-3.91699 0.081929699 0.94360697
-3.9208901 0.064020202 0.82906902
-3.9114799 0.107607 0.96905702
-3.9519501 -0.119027 0.119151
-3.9163101 0.103499 0.92604202
-3.9147899 0.119879 0.94477499
-3.9147699 0.116299 0.91716099
-3.9212699 0.034999501 0.56803602
-3.91697 0.110841 0.86478001
-3.91468 0.115446 0.88391298
-3.9356999 -0.037569601 0.25307199
-3.9144299 0.101959 0.78052098
-3.82972 -0.126802 -0.133178
-3.9196601 0.067570902 0.59574902
-3.91608 0.14601099 0.92799199
-3.70736 0.81529599 0.82385999
-3.91114 0.13821299 0.84647202
-3.91678 0.13790099 0.82278401
-3.9170001 0.135216 0.791098
-3.9189301 0.16153 0.87403399
-3.9311399 0.017694401 0.147447
-3.8227501 -0.0511286 -0.14302801
-3.68047 0.87545502 0.766985
-3.9111099 0.18303201 0.94724202
-3.9137199 0.13654099 0.692083
-3.9054799 0.137192 0.70191801
-3.908 0.17303 0.86060399
-3.90062 0.177248 0.88834298
-3.9087601 0.15775999 0.75878501
-3.90764 0.121885 0.54380298
-3.91117 0.16470499 0.77046102
-3.9022999 0.17563 0.836698
-3.9163599 0.20213699 0.90552402
-3.9042499 0.195456 0.855869
-3.89803 0.204835 0.91677898
-3.90218 0.16413 0.61719698
-3.90587 0.162809 0.57432002
-3.8953099 0.19013099 0.75710201
-3.91348 0.125945 0.25575399
-3.8958001 0.20418 0.76385599
-3.9017301 0.22491901 0.78341198
-3.68556 0.90249598 0.70617098
-3.9068699 0.18177401 0.208547
-3.80141 0.128269 -0.164252
-3.8961401 0.261453 0.52179003
-3.8965299 0.271056 0.64249402
-3.9049599 0.28207901 0.70595598
-3.79422 0.202466 -0.173347
-3.8972001 0.28254199 0.52995801
-3.7918 0.22438 -0.179536
-3.8958299 0.29472899 0.65312701
-3.8943901 0.296776 0.69183499
-3.8982201 0.29811001 0.31337199
-3.8957801 0.32604399 0.29106
-3.8910601 0.33694401 0.55284399
-3.88289 0.34053099 0.57284898
-3.8868201 0.34245101 0.63054103
-3.8882201 0.34776199 0.65856302
-3.8931501 0.35076901 0.44816601
-3.8919799 0.355097 0.83337998
-3.88798 0.35339299 0.25901699
-3.7841699 0.33546001 -0.204561
-3.7828801 0.350245 -0.209242
-3.8807499 0.36785799 0.89136499
-3.8810301 0.383111 0.56985998
-3.7859399 0.38861099 -0.217728
-3.8850801 0.41143799 0.035643399
-3.88188 0.39539599 0.65601802
-3.8836901 0.401678 0.60432601
-3.8829701 0.42376101 0.38903299
-3.8755 0.41585401 0.54830599
-3.87517 0.42172301 0.52118701
-3.8926201 0.45245901 0.048648901
-3.8733101 0.422719 0.59564
-3.8773899 0.43744501 0.67039001
-3.6649201 0.45442399 -0.27901801
-3.87287 0.446628 0.57876301
-3.87099 0.43851301 0.69797599
-3.87199 0.43802699 0.70903403
-3.8798499 0.45141801 0.59989202
-3.8745699 0.444031 0.74958199
-3.7311499 0.51147997 0.363875
-3.8708 0.50194502 0.72318798
-3.6820199 0.56541598 0.027534399
-3.7423999 0.53647 0.389254
-3.6800001 0.56453401 0.118119
-3.7175801 0.56611598 0.25014299
-3.7320099 0.55188102 0.46520901
-3.70526 0.604087 0.233576
-3.71049 0.59411401 0.298816
-3.6731701 0.63456702 0.079238102
-3.77391 0.54519701 0.760782
-3.77844 0.546893 0.77758801
-3.7834101 0.55008799 0.78671098
-3.70175 0.640046 0.31855899
-3.75296 0.58956897 0.627253
-3.7579999 0.57570899 0.70040601
-3.7218101 0.62041199 0.46123099
-3.7605 0.599365 0.60996002
-3.7617199 0.59009898 0.67413503
-3.7300899 0.61593699 0.53466201
-3.7620499 0.592103 0.71840501
-3.76408 0.587861 0.739721
-3.76719 0.57797199 0.787462
-3.6886201 0.67325503 0.291742
-3.78088 0.56251597 0.92786998
-3.7297599 0.63661802 0.57568401
-3.73195 0.63294101 0.59339303
-3.77426 0.57745999 0.87126398
-3.6846199 0.72811502 0.16855399
-3.77055 0.60426801 0.77103698
-3.6919601 0.68379402 0.37747899
-3.7232299 0.64962 0.56708199
-3.76789 0.60649902 0.78780597
-3.78421 0.58948702 0.87343901
-3.6338 0.75034899 0.090806097
-3.77545 0.58080798 0.910613
-3.7237 0.64523298 0.61728001
-3.6736801 0.709203 0.33465499
-3.7183001 0.78360999 0.141542
-3.7147501 0.68548 0.50319302
-3.7388401 0.66272497 0.61336601
-3.7727399 0.609029 0.84911299
-3.7764299 0.599868 0.88712299
-3.73597 0.644063 0.707735
-3.7284701 0.65456802 0.67574
-3.7918601 0.60106099 0.93298697
-3.7323101 0.65151101 0.70409799
-3.7567 0.60313803 0.90057403
-3.7805901 0.59796798 0.94325399
-3.78368 0.60400802 0.93567902
-3.7379999 0.64718997 0.75068903
-3.7481899 0.65962201 0.730483
-3.69889 0.72890902 0.459501
-3.69996 0.69836199 0.56406301
-3.7082 0.69418103 0.58635199
-3.77701 0.62728697 0.89147401
-3.7289901 0.69536901 0.64263499
-3.6407101 0.80622399 0.21144199
-3.6798601 0.76660901 0.37732199
-3.68978 0.78832901 0.347702
-3.76 0.63877302 0.89852297
-3.64961 0.822918 0.23286401
-3.7469699 0.66800898 0.80506599
-3.7183199 0.744735 0.55276
-3.7237201 0.73035902 0.60201001
-3.7354801 0.715496 0.68174201
-3.6764801 0.77267998 0.46881101
-3.7061901 0.74117601 0.58977503
-3.64358 0.83419502 0.28485599
-3.6704099 0.857481 0.25527
-3.74717 0.67394203 0.85627502
-3.7641599 0.65289301 0.93242502
-3.7307799 0.71198899 0.74152899
-3.6815801 0.763843 0.56082499
-3.70983 0.72647297 0.71253502
-3.6468501 0.90148801 0.182982
-3.6824901 0.79581302 0.50669903
-3.7004299 0.76169801 0.61671299
-3.73768 0.72268301 0.756854
-3.67678 0.82922 0.42159599
-3.68033 0.83462602 0.42210001
-3.74527 0.68011898 0.89819998
-3.6377699 0.73241299 0.67466998
-3.6296201 0.87709802 0.289969
-3.6399801 0.84980798 0.419341
-3.64904 0.894642 0.32290301
-3.7133601 0.76329201 0.71258801
-3.7365501 0.69581199 0.90477598
-3.66945 0.81360799 0.55795097
-3.7397699 0.71615702 0.863078
-3.72207 0.74089003 0.80239999
-3.7097399 0.805116 0.67714202
-3.7225699 0.75213498 0.83753699
-3.7181399 0.75914901 0.832362
-3.72458 0.79696602 0.757222
-3.67344 0.89618403 0.50857401
-3.7165501 0.78290403 0.79845101
-3.6984999 0.83906198 0.67357701
-3.6078801 1.08258 0.084308803
-3.7239299 0.77571797 0.848194
-3.7167301 0.771815 0.87763101
-3.7075901 0.791758 0.84121299
-3.72561 0.79322898 0.85742301
-3.7046001 0.81530201 0.809048
-3.7054 0.817967 0.81057602
-3.9528899 0.0023985 0.83708298
-3.8863001 -0.110154 0.86902702
-3.8394201 0.0446552 -0.186048
-3.8237 0.15193699 -0.169635
-3.88392 -0.321181 -0.0923412
-3.86761 -0.20804401 -0.14626899
-3.80442 0.33983901 -0.203081
-3.8476501 -0.075288102 -0.161882
-3.88622 -0.39375901 -0.116825
-3.8907499 -0.46486399 -0.124733
-3.89081 -0.44938999 -0.106026
-3.62901 0.94207603 0.78650099
-3.64381 0.98071301 0.78355998
-3.9534199 -0.152362 0.727696
-3.9505601 -0.135075 0.67800099
-3.8900399 -0.51972902 -0.107794
-3.9529901 -0.16370501 0.56597102
-3.9619999 -0.231598 0.80334002
-3.6359999 1.0147901 0.71670997
-3.6646099 0.90123701 0.86678499
-3.9530101 -0.22868399 0.80132198
-3.9339001 -0.0587768 0.56987602
-3.9272799 -0.76652098 -0.104499
-3.6406901 1.03755 0.61702597
-3.9500599 -0.142538 0.81924999
-3.9460599 -0.14527901 0.79151303
-3.9045401 -0.625247 -0.105887
-3.9533899 -0.14397401 0.76049
-3.94362 -0.12525 0.78780299
-3.94854 -0.150979 0.71300399
-3.8943 -0.570032 -0.110162
-3.8900299 -0.53441399 -0.056248199
-3.9523399 -0.154817 0.67730099
-3.90238 0.163873 0.61777002
-3.94854 -0.15399601 0.650105
-3.7981901 0.12263 -0.162955
-3.9499099 -0.156892 0.63400602
-3.93958 -0.094378397 0.76166701
-3.93993 -0.099249698 0.72361398
-3.9260499 -0.022487599 0.884821
-3.9521599 -0.163184 0.57831597
-3.9495399 -0.139158 0.61833
-3.64799 1.00187 0.72799897
-3.94961 -0.168631 0.50921798
-3.87919 -0.45116001 -0.116592
-3.9232299 -0.041847501 0.77213103
-3.9259601 -0.0260741 0.79738098
-3.8745799 -0.427742 -0.117932
-3.9491701 -0.149087 0.50354302
-3.9277699 -0.0416364 0.75193202
-3.87391 -0.403759 -0.081300803
-3.9480801 -0.15138 0.485762
-3.9559801 -0.178353 0.40871099
-3.9359801 -0.0456427 0.72048599
-3.9252 -0.00112105 0.80629897
-3.88675 0.29483601 0.69790399
-3.91486 0.040373299 0.88836199
-3.94539 -0.15988199 0.369082
-3.8689401 -0.34336799 -0.12745599
-3.9465401 -0.12836 0.40304199
-3.91798 0.0114457 0.765347
-3.9170101 0.034594201 0.82450998
-3.93835 -0.067446403 0.53288102
-3.8933699 0.285272 0.55391598
-3.87501 0.392454 0.66275197
-3.9289 -0.0098124398 0.66022402
-3.8617899 -0.30504599 -0.130419
-3.9280601 -0.017748401 0.58548701
-3.94134 -0.103872 0.28987101
-3.9131899 0.057884399 0.76411802
-3.9191899 0.0478466 0.720658
-3.9210701 0.048886999 0.72316301
-3.9108801 0.082141101 0.82309502
-3.9200399 0.046336502 0.68926799
-3.8432701 -0.222627 -0.116018
-3.9059701 0.114507 0.87460899
-3.92572 0.032887999 0.55557901
-3.90959 0.106687 0.79931003
-3.9072001 0.104986 0.767443
-3.9175601 0.070575297 0.60106498
-3.83496 -0.143086 -0.133981
-3.91415 0.064374499 0.54566997
-3.9325199 -0.0213219 0.210577
-3.63481 1.01136 0.70135599
-3.8950901 0.175538 0.86874998
-3.8250401 -0.0701828 -0.116844
-3.9010401 0.160594 0.77589202
-3.90624 0.14141899 0.65957898
-3.8993299 0.17173 0.78897101
-3.8975301 0.167181 0.75357997
-3.7039599 0.60304803 0.23751999
-3.7488401 0.57280201 0.80478197
-3.81705 -0.022335101 -0.136906
-3.89902 0.19811299 0.81751198
-3.7475801 0.596039 0.78959298
-3.8979001 0.21088099 0.84159601
-3.8948801 0.21414401 0.85870397
-3.9080801 0.169925 0.62090999
-3.8932099 0.21259899 0.83445001
-3.90042 0.161763 0.56283897
-3.90306 0.205883 0.77693701
-3.8977001 0.208114 0.79113102
-3.7460599 0.60844898 0.82221198
-3.9060199 0.157469 0.51349503
-3.8943601 0.23238 0.85737097
-3.8884301 0.219181 0.74995703
-3.8977699 0.154451 0.296884
-3.8971701 0.236102 0.66734803
-3.9174199 0.160814 0.128884
-3.8952899 0.22608399 0.54279798
-3.8922999 0.26790801 0.57057297
-3.7941401 0.181996 -0.165547
-3.89575 0.27501801 0.49924499
-3.79089 0.23982801 -0.18350101
-3.8799801 0.33594301 0.56152999
-3.8847101 0.35405499 0.850088
-3.72717 0.64967799 0.74890399
-3.8807001 0.34496501 0.55297899
-3.8968 0.34671301 0.44029
-3.7810299 0.32022101 -0.184504
-3.9001 0.35558501 0.25136501
-3.88395 0.37125701 0.62132502
-3.8734 0.37105301 0.66580898
-3.8762 0.37577301 0.66652501
-3.8768401 0.377799 0.577438
-3.8712201 0.38550201 0.54954398
-3.8903401 0.386637 0.095044099
-3.87078 0.391747 0.66204101
-3.77354 0.370381 -0.206323
-3.8870001 0.39173201 0.0275342
-3.87082 0.41332701 0.55203199
-3.8659999 0.41710699 0.55524999
-3.8770399 0.41856101 0.60883898
-3.8787 0.42466 0.48731601
-3.8845401 0.425657 0.48713499
-3.8641601 0.420344 0.64620203
-3.89255 0.45135501 0.059771199
-3.8664601 0.42896399 0.84505397
-3.8647599 0.44299999 0.436418
-3.8713901 0.43720701 0.69842499
-3.8691499 0.439679 0.73763102
-3.87097 0.44335899 0.75344002
-3.8719599 0.45284799 0.60786903
-3.86444 0.44833401 0.69265997
-3.8654699 0.45350099 0.67000902
-3.6985199 0.69423699 0.60087901
-3.8627601 0.50347197 0.70220798
-3.86043 0.50511497 0.72237301
-3.7427499 0.54796302 0.437536
-3.74875 0.524665 0.63814598
-3.7350299 0.55353999 0.45669299
-3.7427101 0.56920499 0.51980299
-3.6977601 0.603495 0.26240599
-3.75353 0.55405402 0.73715401
-3.76493 0.54970402 0.79965901
-3.7728901 0.54877102 0.835199
-3.7465899 0.57454997 0.67363799
-3.75928 0.57395798 0.69208902
-3.76647 0.54956597 0.842255
-3.74648 0.58753699 0.62162799
-3.7495301 0.59640002 0.62089002
-3.77353 0.55463701 0.876311
-3.7491701 0.58312398 0.71341503
-3.7261 0.61317199 0.54959601
-3.70243 0.79940599 0.70078099
-3.77035 0.58366299 0.88422602
-3.7077301 0.640966 0.57924998
-3.7162399 0.74933302 0.84246099
-3.7133601 0.66885 0.479072
-3.7313399 0.63067901 0.69864601
-3.72335 0.64143902 0.66134501
-3.75318 0.60097802 0.860461
-3.73703 0.63811201 0.70367998
-3.6605101 0.74574602 0.228221
-3.72173 0.654477 0.68376702
-3.7539699 0.61544102 0.90146703
-3.7536399 0.64164197 0.82634401
-3.7118499 0.69558102 0.60692602
-3.73124 0.64326203 0.81383902
-3.6373799 0.79917002 0.206196
-3.70504 0.68740702 0.67195398
-3.74719 0.62798101 0.91466999
-3.70169 0.72857898 0.55342299
-3.6919601 0.880871 0.88245499
-3.7311699 0.65953302 0.824714
-3.6968999 0.717484 0.62745702
-3.67855 0.87767297 0.87182802
-3.7333601 0.66529799 0.85905498
-3.66715 0.74081898 0.59251499
-3.66904 0.866283 0.70819902
-3.7093899 0.72444397 0.69752997
-3.73927 0.66358298 0.91505402
-3.7344 0.68590599 0.85299402
-3.7144101 0.71011698 0.77581102
-3.73225 0.67097402 0.905119
-3.68976 0.75659901 0.63108301
-3.6263599 0.893291 0.213505
-3.63234 0.88555002 0.29623899
-3.7272899 0.699664 0.87797499
-3.72598 0.68619001 0.91460699
-3.71788 0.71092999 0.84872198
-3.63519 0.847489 0.428628
-3.6998301 0.75578398 0.72239703
-3.6816599 0.83103102 0.51590002
-3.70277 0.70515698 0.870812
-3.7090499 0.73301798 0.80809098
-3.7006299 0.73878503 0.81234002
-3.6832099 0.79333901 0.66789699
-3.7051201 0.73106599 0.84334201
-3.6811299 0.79429501 0.673356
-3.64187 0.87827498 0.46517
-3.7175701 0.752222 0.84361702
-3.62745 0.968701 0.266233
-3.6826799 0.80915499 0.69876301
-3.6900201 0.77534699 0.785236
-3.65573 0.88165098 0.52592099
-3.66254 0.83139902 0.64996201
-3.70611 0.77649599 0.807477
-3.6875601 0.77697599 0.817011
-3.6514201 0.94399202 0.416192
-3.6896801 0.77729398 0.83845502
-3.65658 0.87062502 0.63110101
-3.6454799 0.88216299 0.60717398
-3.7042799 0.78521299 0.86219001
-3.6800599 0.83690298 0.76282001
-3.63012 0.93600202 0.53948301
-3.6368699 0.92730701 0.56956202
-3.6923001 0.804295 0.86983103
-3.63621 0.97303802 0.50681698
-3.6958101 0.80048299 0.89109999
-3.6640201 0.883246 0.72507101
-3.6829 0.84223902 0.817249
-3.6786001 0.83938003 0.82652903
-3.6422999 0.89714599 0.698847
-3.68803 0.83028603 0.85537899
-3.64802 0.89816499 0.71928102
-3.6616299 0.87642998 0.76860398
-3.66645 0.86328602 0.80244398
-3.6897099 0.86620897 0.814915
-3.6891401 0.837129 0.88080001
-3.6808901 0.86159497 0.83573198
-3.6835599 0.85687298 0.845994
-3.6935101 0.841833 0.87944102
-3.61287 1.01134 0.53329998
-3.65522 0.95488501 0.72556102
-3.6881599 0.84214097 0.90617698
-3.6882999 0.84547597 0.909814
-3.6852 0.881311 0.84909302
-3.63833 0.95862001 0.69920599
-3.6322501 0.929398 0.719347
-3.6572499 0.85853302 0.78909898
-3.7140601 0.64604801 0.63324201
-3.72435 0.63169301 0.60049802
-3.8842499 0.26274499 0.53661299
-3.95417 -0.23072299 0.796404
-3.9593201 -0.22940201 0.79208899
-3.9532001 -0.14623199 0.80733699
-3.9430201 -0.14359599 0.78633398
-3.9382999 -0.123389 0.80689299
-3.9420099 -0.119203 0.81348503
-3.9344599 -0.055154599 0.87816203
-3.93699 -0.101668 0.78918701
-3.9326301 -0.055229001 0.85855103
-3.9410701 -0.101169 0.76768303
-3.9276199 -0.0226791 0.86445999
-3.92401 -0.0240296 0.83324999
-3.9363401 -0.0553395 0.76147902
-3.93085 -0.035978999 0.80084902
-3.9281399 -0.026589699 0.80431902
-3.9235001 0.0037453901 0.82783598
-3.91417 0.040332701 0.88417101
-3.92031 -0.0035453001 0.77026802
-3.9138899 0.035821501 0.82493597
-3.9202199 0.0539767 0.85695499
-3.91401 0.0324056 0.77106303
-3.9135599 0.060696699 0.76167601
-3.9131501 0.0825238 0.81895298
-3.9119999 0.0805666 0.79378003
-3.9123099 0.111953 0.868164
-3.9113901 0.10524 0.80901098
-3.91078 0.110981 0.81474698
-3.9112501 0.142755 0.85396498
-3.9084401 0.114817 0.75763202
-3.90663 0.137803 0.80569297
-3.8982699 0.172383 0.88500798
-3.8993101 0.171627 0.87061203
-3.9006901 0.16948199 0.813106
-3.9019301 0.177663 0.841461
-3.8982699 0.164584 0.754857
-3.89973 0.177882 0.78915399
-3.9006701 0.21616399 0.86638802
-3.89621 0.19430199 0.76431298
-3.89222 0.21179099 0.823017
-3.90118 0.20758501 0.78515601
-3.89257 0.20565499 0.76468599
-3.8942001 0.234586 0.858567
-3.8888299 0.213239 0.74813497
-3.89589 0.232012 0.81309301
-3.86905 0.438649 0.725802
-3.86941 0.442357 0.73886901
-3.87043 0.445811 0.76452601
-3.8682001 0.447669 0.82750201
-3.8677199 0.50421202 0.71991003
-3.7678199 0.55294597 0.86917299
-3.7728 0.553518 0.871014
-3.7664599 0.57428497 0.82033598
-3.7741899 0.58469403 0.85837102
-3.7569399 0.60424298 0.79654801
-3.7498901 0.58489501 0.89567399
-3.74948 0.58418602 0.89859903
-3.7513599 0.61141503 0.805471
-3.74947 0.63601398 0.86223799
-3.7319601 0.66696501 0.80828798
-3.7332101 0.68707401 0.85770899
-3.74301 0.67838001 0.89893699
-3.7284501 0.717942 0.84655797
-3.7362101 0.698645 0.90413702
-3.7007699 0.74045098 0.81316102
-3.7058101 0.73329902 0.84285003
-3.7167699 0.751297 0.842435
-3.70029 0.735448 0.91528702
-3.69979 0.78888798 0.84672397
-3.7100401 0.80984098 0.81241399
-3.6954501 0.80687201 0.83224797
-3.69557 0.817056 0.90691799
-3.6807401 0.86395901 0.82254797
-3.68452 0.86151999 0.82879502
-3.68765 0.82692999 0.90069801
-3.6984401 0.86659497 0.84791398
-3.68155 0.84069902 0.91355503
-3.69929 0.86339802 0.890683
-3.6817801 0.91552597 0.80812502
-3.6853299 0.884166 0.86374098
-3.6672699 0.89693701 0.83941197
-3.66869 0.90091902 0.84837598
-3.89061 -0.553262 -0.099493697
-3.8440101 -0.194269 -0.12802701
-3.90116 0.16033 0.56438601
-3.9725399 -0.33340999 0.66343302
-3.97488 -0.33588299 0.63279498
-3.97282 -0.325986 0.64709198
-3.9263899 -0.75912499 -0.106404
-3.69609 0.60174799 0.24163
-3.91028 -0.68008 -0.105002
-3.7179999 0.61335802 0.559277
-3.6533301 0.81919098 0.40906301
-3.8928499 -0.598566 -0.030647
-3.9483299 -0.14938401 0.73383999
-3.89856 -0.62482399 -0.103182
-3.94978 -0.150584 0.716636
-3.67959 0.75213301 0.63976997
-3.93891 -0.126807 0.74453199
-3.9507201 -0.152685 0.67334098
-3.94928 -0.136287 0.66183299
-3.9516301 -0.15532 0.61679697
-3.6172099 1.0182 0.52704901
-3.88939 -0.52626699 -0.106944
-3.94804 -0.15952399 0.59092098
