# .PCD v0.7 - Point Cloud Data file format
VERSION 0.7
FIELDS x y z
SIZE 4 4 4
TYPE F F F
COUNT 1 1 1
WIDTH 1409
HEIGHT 1
VIEWPOINT 0 0 0 1 0 0 0
POINTS 1409
DATA ascii
-0.85470301 -0.11836 -0.469881
-0.912925 -0.124109 -0.481181
-0.739474 -0.054917201 -0.45900801
-0.90420401 -0.0311704 -0.423244
-1.1689399 -0.213065 -0.555071
-0.68198103 -0.48844299 -0.494418
-0.71865302 -0.39848399 -0.46853
-0.77337497 -0.40555999 -0.52857703
-0.63383299 -0.34616101 -0.479424
-0.76006401 -0.33687001 -0.428224
-1.08628 -0.35519201 -0.54092699
-0.835738 -0.31167799 -0.52378303
-0.72986001 -0.172736 -0.51681602
-0.62076598 -0.115859 -0.46436399
-0.583134 -0.092308097 -0.42815101
-0.65102798 -0.051297698 -0.40192801
-0.965487 -0.063903399 -0.48438501
-0.74642497 -0.0337964 -0.475602
-1.03216 -0.54496902 -0.48334101
-1.02742 -0.21580601 -0.46723199
-0.615547 -0.105678 -0.417238
-0.743218 -0.58883101 -0.445728
-0.63490403 -0.48716599 -0.49506599
-1.07052 -0.56625098 -0.56011099
-0.750144 -0.49051401 -0.52109599
-0.62819999 -0.44186801 -0.47821799
-0.83865303 -0.47156 -0.49764699
-0.60561502 -0.41963899 -0.47558799
-0.65787798 -0.39829099 -0.433606
-0.81575102 -0.43795899 -0.514696
-0.83656597 -0.41922799 -0.54115999
-0.97061199 -0.36866501 -0.52888101
-0.59366798 -0.25993201 -0.47029799
-0.92015702 -0.292656 -0.48288199
-0.67817098 -0.224714 -0.47263101
-0.46296501 -0.107987 -0.42967701
-0.62945199 -0.0982989 -0.51571202
-0.47185299 -0.026353801 -0.41988999
-0.86344302 -0.0071081002 -0.423473
-0.466676 0.0059000198 -0.41646999
-0.47052899 0.084126897 -0.42081901
-0.45791501 0.097507603 -0.40530401
-0.47949299 -0.0140338 -0.42470399
-0.68934101 -0.048472598 -0.45851699
-0.91809797 -0.127168 -0.50528502
-0.61143702 -0.42898399 -0.49017
-0.84952098 -0.40983701 -0.509161
-1.17734 -0.43625799 -0.592489
-1.13928 -0.354377 -0.53259897
-0.59080797 -0.15629201 -0.449478
-0.53335899 -0.59489 -0.54072797
-0.52513999 -0.58149803 -0.54421902
-0.51127398 -0.39379501 -0.49920401
-1.02346 -0.47222599 -0.577636
-0.74441898 -0.39230499 -0.458103
-0.50587398 -0.315043 -0.499322
-0.95571399 -0.387189 -0.54437399
-0.62667203 -0.307432 -0.515661
-1.09837 -0.368817 -0.55149502
-0.49592999 -0.26202801 -0.50917202
-0.81562102 -0.30024201 -0.54627901
-0.87071598 -0.29428899 -0.50576198
-1.1543601 -0.32676199 -0.55144501
-0.90858901 -0.28950101 -0.55294502
-1.06046 -0.29414499 -0.57732099
-0.48085299 -0.198796 -0.50213498
-0.61654502 -0.206551 -0.50502902
-0.70760798 -0.21607 -0.50484902
-0.89797598 -0.230914 -0.52915698
-0.64188302 -0.176503 -0.467325
-1.08083 -0.226493 -0.54542899
-0.48579001 -0.119513 -0.45554
-0.48248199 -0.058382198 -0.475793
-1.02608 -0.0902998 -0.465727
-0.47626099 0.0153374 -0.427917
-0.46928701 0.0224675 -0.43204799
-0.46742001 0.065155499 -0.43745801
-0.440494 0.115732 -0.45234099
-0.63771099 -0.51105797 -0.54867703
-0.989088 -0.47296399 -0.52610099
-0.51069802 -0.367284 -0.495285
-0.85027498 -0.41144201 -0.51539099
-0.51238298 -0.321729 -0.493774
-0.61230499 -0.33879301 -0.50904202
-0.99317002 -0.40139601 -0.55113602
-0.60205799 -0.271097 -0.52803099
-0.63825202 -0.254327 -0.52773201
-1.19981 -0.28181601 -0.63160098
-0.85902399 -0.41332299 -0.51843899
-1.20803 -0.37547299 -0.61531597
-0.62347603 -0.0130055 -0.52689803
-0.53061002 -0.53699303 -0.53675002
-0.52192199 -0.47395599 -0.52699
-0.52869898 -0.475353 -0.52848703
-1.14495 -0.55851299 -0.57241702
-0.52060503 -0.43994701 -0.52482998
-0.746898 -0.487423 -0.59317601
-0.66184002 -0.429988 -0.58444101
-0.7112 -0.429077 -0.58292103
-0.51271403 -0.38246799 -0.51198798
-0.50069797 -0.35464001 -0.55579603
-1.05808 -0.40142599 -0.53053403
-0.70634103 -0.32734701 -0.55403101
-0.47835699 -0.0500906 -0.45529601
-0.68978798 -0.27265599 -0.49801999
-1.0599 -0.30857801 -0.62746501
-0.81861502 -0.27003801 -0.56009102
-0.493393 -0.167393 -0.47574499
-0.68013799 -0.17932799 -0.47331601
-0.809632 -0.19059999 -0.49719399
-1.1143301 -0.110892 -0.44723001
-0.64676601 -0.084098801 -0.44170299
-0.58402401 -0.075312003 -0.45314401
-0.48059899 -0.064269103 -0.451094
-0.74371397 -0.035502002 -0.47701499
-0.468088 -0.0012460001 -0.49367499
-0.475885 0.00049037498 -0.46411899
-0.87185597 -0.0027462 -0.440907
-0.59661901 -0.178625 -0.51393098
-0.70325202 -0.228835 -0.439794
-0.468456 0.060311399 -0.45500299
-0.530626 -0.51645398 -0.567074
-0.69654298 -0.43545899 -0.52442199
-0.51729602 -0.41068199 -0.536798
-0.85654098 -0.39940399 -0.550776
-1.15504 -0.37340599 -0.53601903
-0.61407202 -0.25580901 -0.44836599
-0.58286899 -0.090182997 -0.50430202
-0.47371 -0.0409947 -0.449123
-0.94055498 -0.0034420399 -0.43274099
-0.65517402 -0.508582 -0.54409999
-0.52433097 -0.47398299 -0.53707302
-0.51582301 -0.37977701 -0.524221
-0.49602699 -0.209287 -0.49779999
-0.59105599 -0.16220701 -0.468667
-0.62221098 -0.107338 -0.452979
-1.1289901 -0.107969 -0.48104301
-1.00833 -0.085879803 -0.42844701
-0.85562402 -0.0048022498 -0.41868699
-0.46632701 0.0197284 -0.439578
-0.467132 0.050160799 -0.44020301
-0.531587 -0.560583 -0.55193001
-1.06085 -0.58112198 -0.61128497
-0.68054801 -0.485277 -0.48238999
-0.79196501 -0.493449 -0.516864
-1.24598 -0.47042 -0.58367902
-1.0838701 -0.43231401 -0.48450401
-0.50962597 -0.38121599 -0.53005099
-0.50695997 -0.30713999 -0.52022099
-0.501454 -0.25406101 -0.50944501
-0.60393798 -0.25179499 -0.49160799
-0.84792602 -0.0193411 -0.42279199
-0.57551903 -0.079469502 -0.44459301
-0.49516201 -0.28545901 -0.522192
-0.50601399 -0.34158999 -0.51190299
-0.517667 -0.352249 -0.52752298
-1.09639 -0.56874001 -0.58509898
-0.51087397 -0.37138101 -0.52370399
-0.73223603 -0.318351 -0.49253601
-0.50428098 -0.31641299 -0.50509501
-0.476605 -0.039647099 -0.455679
-0.79633498 -0.281378 -0.50788301
-0.622504 -0.27855301 -0.51440299
-0.60920602 -0.094497703 -0.46976501
-0.479606 -0.092597201 -0.45111001
-0.46529499 -0.024793001 -0.452593
-1.09086 -0.40450799 -0.463727
-0.53100502 -0.58155799 -0.56085497
-0.63364702 -0.50651699 -0.53583902
-0.51124501 -0.45911899 -0.55793399
-0.62219501 -0.42302099 -0.52409899
-0.52955598 -0.51859599 -0.53745699
-0.65098798 -0.067121297 -0.45990399
-0.460951 0.0223919 -0.438104
-0.52252102 -0.51455098 -0.54954898
-0.60208702 -0.34409201 -0.50134897
-0.64355302 -0.55577898 -0.65801102
-0.79221499 -0.48273501 -0.53271902
-0.52737403 -0.47717401 -0.562765
-0.63349903 -0.25177801 -0.49929199
-0.478955 -0.16514599 -0.48708999
-0.46994299 -0.028487099 -0.44701201
-0.465345 0.027092399 -0.437139
-1.03891 -0.382036 -0.57386899
-1.1542701 -0.425529 -0.55106997
-0.76204997 -0.433045 -0.55407602
-1.09714 -0.57279199 -0.596313
-0.61462897 -0.42773399 -0.52078903
-0.51244903 -0.38536301 -0.52539998
-1.13568 -0.36114401 -0.52905601
-0.50331497 -0.34564799 -0.51571798
-0.77633899 -0.320797 -0.51835299
-0.49608701 -0.24921 -0.48789799
-0.60684502 -0.218023 -0.47663099
-0.96269101 -0.192141 -0.495823
-0.749165 -0.197025 -0.49876601
-0.47596401 -0.052373499 -0.456828
-0.63515598 -0.50298202 -0.53489298
-0.45968401 0.035483301 -0.437464
-1.10759 -0.370536 -0.56125498
-1.03856 -0.070893802 -0.470604
-0.813097 -0.072301 -0.43350801
-0.56756997 -0.094348602 -0.46698099
-0.58811897 -0.0492259 -0.45020899
-0.45975 0.067736998 -0.42674699
-0.52954799 -0.56100798 -0.54647499
-0.82674199 -0.52503502 -0.60303998
-0.51404202 -0.41615301 -0.53196901
-0.54050702 -0.553927 -0.54545897
-0.62311298 -0.295625 -0.51785499
-0.53536999 -0.55539101 -0.55429202
-0.53278702 -0.541906 -0.55613399
-0.74877501 -0.079850197 -0.473212
-0.52325398 -0.493747 -0.560471
-0.50854403 -0.433422 -0.54585099
-0.65485102 -0.44029599 -0.53355598
-0.96800202 -0.471845 -0.55422902
-0.87498701 -0.39727601 -0.54286301
-0.50887197 -0.32888401 -0.51217401
-1.0438401 -0.37154999 -0.53908598
-0.52301902 -0.44109401 -0.54148102
-0.51808298 -0.39563099 -0.52629501
-1.03628 -0.302347 -0.52425402
-0.75187498 -0.20072401 -0.491941
-0.59306902 -0.159962 -0.46506599
-0.475885 -0.074731097 -0.461613
-0.67190897 -0.06955 -0.458864
-1.02312 -0.057759602 -0.470539
-0.85419202 -0.41866401 -0.54343897
-0.88872498 -0.24960101 -0.50700402
-0.60189599 -0.25287199 -0.49013999
-0.50395203 -0.224667 -0.48720601
-1.14784 -0.320434 -0.53677702
-0.701235 -0.228467 -0.487941
-0.503106 -0.276793 -0.50053197
-0.84840399 -0.32868099 -0.522111
-0.478185 -0.059165802 -0.45281899
-0.46493199 0.054551799 -0.429308
-0.87057 -0.42006201 -0.54219598
-0.59995902 -0.11551 -0.46971199
-0.489876 -0.164663 -0.47644401
-0.652637 -0.329344 -0.486341
-0.83576798 -0.31131199 -0.51769
-0.58269203 -0.076084703 -0.45924699
-0.61487901 -0.33724499 -0.50788301
-0.53468603 -0.58941698 -0.56019801
-0.71542001 -0.213633 -0.48746499
-0.644198 -0.45206401 -0.55274302
-0.84896201 -0.122876 -0.48126599
-0.45687801 0.0577203 -0.43263
-0.92593598 -0.044080399 -0.46325001
-0.45839301 0.050115701 -0.434926
-0.67556101 -0.259359 -0.493175
-0.50563502 -0.35349199 -0.52098203
-1.01759 -0.065274097 -0.47086701
-0.46600601 0.0095957601 -0.42142799
-0.96898502 -0.124837 -0.50674099
-0.48324999 -0.202994 -0.49007401
-0.51398498 -0.41111001 -0.534069
-1.0793101 -0.58078498 -0.605708
-0.97642499 -0.45610499 -0.56171298
-1.14315 -0.368839 -0.57028002
-0.98360002 -0.37276199 -0.538764
-1.07943 -0.29409799 -0.55111402
-0.50580102 -0.355196 -0.53087902
-0.68525702 -0.305154 -0.51311898
-0.497078 -0.296893 -0.50532299
-0.766761 -0.261338 -0.51056099
-0.59100503 -0.265881 -0.48568901
-0.49091801 -0.15433501 -0.477604
-0.57780498 -0.085857101 -0.46322
-0.47289801 -0.0339153 -0.45398599
-0.721829 -0.063074097 -0.46984401
-0.47792 -0.117263 -0.466571
-0.58749998 -0.0531452 -0.45594701
-0.86559701 -0.089380503 -0.48401701
-0.71698099 -0.21708199 -0.49087
-0.460783 0.046178699 -0.430145
-1.06345 -0.468914 -0.58178997
-0.52990001 -0.57225299 -0.56806898
-0.51041001 -0.440283 -0.537714
-0.73663598 -0.14090399 -0.49980599
-0.48607901 -0.22117101 -0.48497999
-0.61115402 -0.28281999 -0.507765
-1.0072 -0.34412101 -0.544303
-1.12923 -0.43594301 -0.56127
-0.57157397 -0.096016899 -0.456911
-0.63742203 -0.36191499 -0.53647703
-0.79589999 -0.28289601 -0.50769901
-0.70124203 -0.175736 -0.48037699
-1.0545599 -0.119469 -0.502397
-0.88295102 -0.135078 -0.48952401
-0.93312901 -0.056789301 -0.47941601
-1.00871 -0.0295997 -0.47571301
-0.69994301 -0.068953402 -0.457524
-0.85003299 -0.131695 -0.48498499
-0.45011601 0.098109998 -0.43079799
-0.69595599 -0.23964 -0.49789301
-0.86105001 -0.42626601 -0.56112599
-0.61560798 -0.435734 -0.53474098
-0.657386 -0.321502 -0.50931799
-0.86624902 -0.30141899 -0.51872098
-0.60515499 -0.214307 -0.48258001
-0.88343501 -0.086451598 -0.48216301
-0.461198 0.015458 -0.43557999
-0.51447099 -0.45293599 -0.53805703
-0.98598403 -0.40585199 -0.553514
-0.88517499 -0.31664199 -0.53241402
-0.462125 0.117421 -0.41479301
-0.65478098 -0.058678299 -0.458951
-0.87779599 -0.050793301 -0.470929
-0.49869999 -0.30013299 -0.50279099
-0.59658599 -0.108044 -0.47590399
-0.72654402 -0.26797199 -0.50795698
-0.52196401 -0.50013602 -0.54468203
-0.706788 -0.471082 -0.543001
-0.50188702 -0.43026501 -0.52837902
-0.50042599 -0.36805299 -0.51942301
-1.13175 -0.232618 -0.530204
-0.49360701 -0.26823899 -0.49478599
-0.823663 -0.165299 -0.481069
-0.48724899 -0.198686 -0.477624
-1.0145299 -0.0088789295 -0.46882799
-0.58300298 -0.029684 -0.451711
-0.46245101 0.016576899 -0.43362901
-0.45678699 0.032251898 -0.43058199
-0.60050702 -0.15537301 -0.47164899
-0.68931597 -0.179711 -0.47031
-0.61265701 -0.29041499 -0.49537799
-0.60963398 -0.35169601 -0.49960199
-0.78468502 -0.40886199 -0.52724802
-0.456449 0.118849 -0.413095
-0.91296399 -0.065323099 -0.471158
-0.51594502 -0.44891 -0.52533001
-0.51715499 -0.571374 -0.56154197
-0.52442998 -0.54782802 -0.55151099
-1.06378 -0.43427801 -0.55590802
-0.51985502 -0.47022501 -0.52600503
-0.796579 -0.414877 -0.53377998
-0.80335498 -0.33792499 -0.52649999
-0.50718302 -0.37909099 -0.50994498
-0.92435598 -0.283288 -0.51200402
-1.11295 -0.23817299 -0.52351803
-0.84614801 -0.160304 -0.476437
-0.46728399 -0.17196301 -0.47165099
-0.68432897 -0.124205 -0.466436
-1.09324 -0.043678001 -0.47956899
-1.01114 -0.035758901 -0.46557099
-0.47964099 -0.135648 -0.460354
-0.82388198 -0.055897299 -0.45298699
-0.46834201 -0.120853 -0.459304
-0.618815 -0.079558402 -0.453648
-0.85518903 -0.0024981799 -0.449572
-0.46882799 -0.071139097 -0.44972399
-0.46915001 -0.044146001 -0.44426101
-0.46460199 -0.0030870901 -0.43479201
-0.57105201 0.0511286 -0.42639199
-0.450555 0.11443 -0.41253799
-0.474107 -0.086450398 -0.45274499
-0.56797302 -0.089686297 -0.45541
-0.948273 -0.047989499 -0.46824101
-0.50158298 -0.3161 -0.49610999
-0.51740301 -0.50681901 -0.54638702
-0.75033599 -0.080562703 -0.47419801
-0.84227598 -0.065794498 -0.43318301
-0.66412097 0.0023840701 -0.46388701
-0.51881498 -0.445586 -0.54289299
-0.69878799 -0.16944 -0.474251
-0.52449101 -0.50505799 -0.56128502
-0.51249701 -0.380193 -0.53130901
-0.50302798 -0.304883 -0.507357
-0.49493599 -0.23191001 -0.49376601
-0.61996198 -0.288405 -0.51005399
-0.48436099 -0.077450797 -0.46230501
-0.735066 -0.41954401 -0.54806501
-0.63023001 -0.412146 -0.52698898
-0.47792301 -0.0859337 -0.459241
-0.65162897 -0.065711699 -0.46230999
-0.720249 -0.24008299 -0.51531202
-0.46402401 -0.022644499 -0.44685501
-0.59128797 -0.056038901 -0.457623
-0.53302002 -0.58437002 -0.56594503
-0.59471202 -0.105905 -0.46976301
-0.96445101 -0.40796801 -0.55070901
-0.620094 -0.111146 -0.46866301
-0.42545301 0.103975 -0.45780501
-0.55831897 -0.0121482 -0.435954
-0.46653801 -0.049176499 -0.444594
-0.521945 -0.51398998 -0.54066098
-1.15513 -0.367322 -0.545385
-0.712515 -0.42452201 -0.52754098
-0.85988897 -0.38242301 -0.52453601
-0.89503002 -0.34914601 -0.52212501
-0.50558299 -0.42085499 -0.522277
-0.51305801 -0.406627 -0.51291698
-1.11857 -0.28415799 -0.516693
-0.70270401 -0.336867 -0.50831503
-0.86451203 -0.29715201 -0.51071101
-0.50738102 -0.36516199 -0.507128
-0.70681602 -0.305163 -0.50499499
-1.12131 -0.217851 -0.51126498
-0.98468 -0.233937 -0.510625
-1.00111 -0.21147899 -0.50888503
-0.658176 -0.27324599 -0.50130999
-0.852593 -0.171336 -0.486139
-0.49263701 -0.24650399 -0.48460299
-0.622967 -0.21705 -0.48677999
-1.12106 -0.104821 -0.488902
-0.92158002 -0.132724 -0.474433
-0.99216598 -0.104568 -0.47734201
-0.86662501 -0.12781601 -0.47266999
-0.848616 -0.126238 -0.47158101
-0.608136 -0.168789 -0.49193099
-1.01684 -0.057606202 -0.47605601
-0.90772802 -0.066657603 -0.468413
-1.09247 -0.023584399 -0.462176
-0.57370299 -0.0986076 -0.455553
-1.00611 0.0130584 -0.46149501
-0.69501299 -0.0380015 -0.44749701
-0.59931701 -0.081633203 -0.456092
-1.01188 0.0139042 -0.457297
-0.63064802 -0.078787699 -0.46002999
-0.84226602 -0.060408302 -0.46092501
-1.01253 -0.0305057 -0.46632901
-0.925883 -0.067688897 -0.47261101
-0.60114199 -0.15586799 -0.46696201
-0.52711701 -0.54666501 -0.54928797
-0.64354497 -0.51016998 -0.53368801
-1.0799201 -0.13233 -0.49259999
-0.50283098 -0.330376 -0.49819401
-0.51229399 -0.35815999 -0.50906301
-0.516913 -0.45004201 -0.52727097
-0.78611302 -0.41014099 -0.52706301
-0.876553 -0.42705601 -0.54126799
-1.1260099 -0.58202201 -0.58637798
-0.47481599 -0.091385998 -0.455367
-0.47965899 -0.13664301 -0.46107501
-0.92662001 -0.28413099 -0.50377798
-0.61646497 -0.125137 -0.46339801
-0.60941303 -0.0152605 -0.444442
-0.47248399 -0.076273397 -0.451098
-0.460971 -0.0905357 -0.456067
-0.70814902 -0.179713 -0.47553599
-0.58131403 -0.087551303 -0.45193201
-0.63690001 -0.079578802 -0.45908001
-0.68244302 -0.080567397 -0.457715
-1.0113699 -0.0055038999 -0.46093899
-0.53259403 -0.59056097 -0.55754501
-0.92812002 -0.46802101 -0.54022098
-0.94836402 -0.434825 -0.55816102
-0.67082202 -0.47457799 -0.53655702
-1.1648901 -0.370662 -0.54244798
-0.74721199 -0.452705 -0.53479701
-0.81823802 -0.43784299 -0.53951102
-0.89924097 -0.39708999 -0.52087301
-0.68008101 -0.42768401 -0.52542502
-0.94870698 -0.36366501 -0.52612901
-0.719585 -0.397098 -0.516877
-0.69347602 -0.37054601 -0.51878703
-0.75037301 -0.35228801 -0.52318799
-0.96974999 -0.30295101 -0.51580203
-0.51176298 -0.38597599 -0.50672299
-0.72449201 -0.332349 -0.499755
-0.78107703 -0.31926599 -0.50266999
-0.800035 -0.040702999 -0.45505601
-0.79529703 -0.263484 -0.50968599
-0.85067898 -0.25150001 -0.492432
-0.49928999 -0.30076399 -0.492659
-0.87883502 -0.158089 -0.50048399
-1.0169899 -0.12002 -0.48884699
-0.81484997 -0.166154 -0.484207
-0.97488999 -0.103693 -0.46781
-0.48596799 -0.208764 -0.47483701
-0.882631 -0.0902123 -0.46168801
-1.04398 -0.0282357 -0.468932
-0.86697698 -0.070918702 -0.46311
-0.91092002 -0.045248501 -0.46493199
-1.08471 -0.00068361103 -0.457093
-0.60302299 -0.16617 -0.46800101
-0.51839 -0.473618 -0.52791798
-0.80832201 -0.43395901 -0.53231198
-0.57108003 -0.102667 -0.45376101
-0.86727202 -0.121373 -0.46858701
-0.505337 -0.35733199 -0.50355601
-0.93591702 -0.28887799 -0.510728
-0.51282501 -0.41126999 -0.51269501
-1.1469899 -0.380698 -0.54721498
-0.527789 -0.55025202 -0.54707497
-0.90727597 -0.010178 -0.45465699
-0.94826698 -0.052557599 -0.46668601
-0.810323 -0.10697 -0.46393499
-0.72684503 -0.53057402 -0.55113101
-1.13341 -0.440222 -0.54587299
-0.52390802 -0.52825701 -0.54134101
-0.991391 -0.42299801 -0.53984499
-1.1000201 -0.37675601 -0.54209
-1.08715 -0.32875001 -0.526447
-1.04127 -0.317146 -0.52399099
-0.947438 -0.327674 -0.52292299
-0.88250297 -0.25643599 -0.50041002
-0.925834 -0.20770299 -0.488267
-1.00806 -0.158714 -0.485385
-0.71380001 -0.219172 -0.475528
-0.59267497 -0.127289 -0.460677
-0.8725 -0.17435899 -0.47895101
-0.66137701 -0.21336 -0.48235601
-1.05861 -0.094616398 -0.47808701
-0.91848701 -0.122189 -0.47160101
-0.86622697 -0.109493 -0.466524
-0.87110001 -0.00436426 -0.45060101
-0.92195398 0.0056126402 -0.451197
-1.11713 -0.116524 -0.48935801
-0.86189401 -0.38442999 -0.51879197
-0.88507998 -0.44559699 -0.53650898
-0.60006601 -0.157351 -0.46767801
-0.49188399 -0.22992399 -0.483419
-0.92886198 -0.28568399 -0.503218
-0.62905699 -0.390214 -0.512703
-0.69455498 -0.4269 -0.51736403
-0.52060097 -0.47059599 -0.52636302
-0.68907499 -0.095276602 -0.45951
-0.67638999 -0.16410001 -0.47366801
-0.70767701 -0.478228 -0.53978801
-0.72621202 -0.46359599 -0.53303403
-0.96961802 -0.40533599 -0.54031903
-0.873465 -0.40515801 -0.51487303
-0.78937298 -0.40823999 -0.52152401
-1.13178 -0.30529201 -0.525433
-0.75284803 -0.36619499 -0.51996303
-0.887532 -0.32062101 -0.513264
-0.902215 -0.26423499 -0.50246698
-0.688474 -0.306171 -0.49883199
-0.50251102 -0.32838699 -0.49831501
-0.61732799 -0.30082101 -0.49556601
-0.927984 -0.18951499 -0.48651999
-0.85393298 -0.17776901 -0.47767401
-1.0787801 -0.068337701 -0.474379
-0.63463801 -0.20714299 -0.47981101
-0.93457401 -0.136521 -0.441829
-0.86047602 -0.061333898 -0.45922399
-0.61619103 -0.137531 -0.46311399
-0.48897901 -0.200967 -0.472213
-0.608172 -0.218362 -0.47796899
-0.50035203 -0.29865599 -0.49422199
-0.85382801 -0.252354 -0.50023597
-0.951711 -0.040673502 -0.461106
-0.49882299 -0.27415699 -0.487371
-1.0927401 -0.32459101 -0.52884698
-0.98224699 -0.39175999 -0.53202099
-0.72812802 -0.45270699 -0.52968699
-0.52459598 -0.51782501 -0.54320198
-0.52910399 -0.56447703 -0.55286998
-0.92486203 -0.068012103 -0.46893001
-0.57003999 -0.091852598 -0.455843
-1.0106 0.0095333997 -0.45569301
-0.59170002 -0.096967503 -0.460089
-0.842287 -0.085528798 -0.46326599
-0.78432697 -0.48656401 -0.53704399
-1.07944 -0.40412399 -0.53628099
-1.16373 -0.36993399 -0.55189002
-0.98923498 -0.40047801 -0.53641099
-0.90201402 -0.413156 -0.53340203
-0.84741098 -0.38740301 -0.52465099
-0.51072699 -0.39082399 -0.509835
-1.11526 -0.241358 -0.51438999
-0.51156098 -0.34866801 -0.50278002
-1.12216 -0.171261 -0.498108
-1.0969 -0.173077 -0.49064299
-0.872778 -0.156698 -0.485502
-0.96288198 -0.13155299 -0.47886899
-1.10918 -0.074422099 -0.47361299
-0.88214701 -0.100758 -0.464968
-1.01042 -0.054712299 -0.47200999
-0.59655797 -0.119428 -0.46015701
-1.08654 9.7378899e-05 -0.45774299
-0.58677799 -0.176498 -0.47237599
-0.496856 -0.218284 -0.47894201
-1.0633 -0.098677203 -0.476376
-0.49196801 -0.24785499 -0.48712999
-0.501625 -0.36925501 -0.50740498
-0.65989399 -0.382139 -0.51563197
-0.52146 -0.492428 -0.53525603
-0.50034899 -0.30641899 -0.494093
-0.98769099 -0.19818699 -0.49238601
-0.867957 -0.248888 -0.499933
-0.60440803 -0.34594199 -0.51090902
-0.87466002 -0.320043 -0.51540899
-0.51728302 -0.452562 -0.52571398
-1.04382 -0.42281699 -0.54339498
-0.90364701 -0.51422799 -0.552782
-0.83327401 -0.038718801 -0.45490199
-0.85634702 -0.041750301 -0.45308501
-0.91741401 0.012536 -0.445436
-0.472826 -0.098636702 -0.45994401
-0.53121001 -0.57719898 -0.55479002
-0.64201599 -0.499488 -0.53734303
-0.52288401 -0.512537 -0.538679
-1.03681 -0.364737 -0.52638102
-0.92383599 -0.35058999 -0.52001899
-0.62837499 -0.397302 -0.51634401
-0.69550598 -0.37807199 -0.51540399
-0.51873499 -0.40070799 -0.512573
-0.93111497 -0.287597 -0.50561303
-0.81927198 -0.28708601 -0.50269198
-0.86248797 -0.268143 -0.49840501
-0.68107003 -0.25666901 -0.49069101
-0.65172899 -0.206104 -0.47741899
-0.92262 -0.118503 -0.46343601
-0.99274498 -0.085717201 -0.479334
-1.0402 -0.0626266 -0.470658
-0.880449 -0.088148698 -0.46719301
-0.863114 -0.088822097 -0.46285799
-0.956581 -0.041207001 -0.459503
-0.57216197 -0.085097097 -0.46273699
-0.58000797 -0.183893 -0.47551
-1.1179301 -0.106148 -0.485576
-0.49410799 -0.26982501 -0.50375098
-0.59093899 -0.262878 -0.49314001
-0.50776398 -0.38344401 -0.51174998
-0.51694101 -0.386399 -0.51123297
-0.868334 -0.32595801 -0.51587898
-0.508663 -0.40282199 -0.51314598
-1.1332 -0.30653101 -0.52555102
-0.52036399 -0.465639 -0.52786702
-0.52945799 -0.56618899 -0.55093199
-0.595218 -0.088645801 -0.45746699
-1.0829 -0.00159428 -0.46110401
-0.92628402 -0.051897701 -0.46387199
-1.06317 -0.096901298 -0.477072
-0.82847703 0.0023813399 -0.45212999
-0.52533102 -0.547162 -0.55298901
-0.50709897 -0.407381 -0.523911
-0.772609 -0.34953699 -0.507047
-0.78281701 -0.33711001 -0.50906003
-0.70459002 -0.27850601 -0.49738199
-0.68179101 -0.27918899 -0.496847
-0.61330497 -0.28596401 -0.49636099
-0.49905401 -0.30794701 -0.49813899
-1.01368 -0.169002 -0.49076599
-0.49349001 -0.28650099 -0.49972701
-0.472078 -0.090059802 -0.45750001
-0.62379903 -0.20938499 -0.481538
-0.48714101 -0.20931 -0.47806999
-0.67507303 -0.167879 -0.45163301
-0.81080598 -0.096572801 -0.46899301
-0.48116699 -0.14743499 -0.46802801
-0.78969002 -0.044066999 -0.45082599
-0.47494301 -0.114694 -0.463379
-0.94128102 0.0216139 -0.458226
-0.59082401 -0.116927 -0.46132901
-0.487634 -0.21692 -0.48171499
-0.497334 -0.29955 -0.49628499
-0.50218499 -0.36101401 -0.51473099
-0.658867 -0.37910199 -0.51717699
-0.70449603 -0.461474 -0.53331298
-0.51268601 -0.582681 -0.55715001
-0.51705003 -0.46492401 -0.53028297
-0.66648602 -0.072597601 -0.46220201
-0.49813399 -0.295232 -0.50027102
-0.70579302 -0.0668751 -0.47684699
-0.52153099 -0.52435601 -0.55986601
-0.57067698 -0.0917928 -0.45696899
-0.314601 0.170827 -0.42711699
-0.49012199 -0.220495 -0.48776099
-0.87208599 -0.427697 -0.56597799
-0.46291801 0.017780799 -0.43336001
-0.50605398 -0.38042399 -0.519723
-0.47618401 -0.066183299 -0.44916001
-1.0414701 -0.26209199 -0.52562302
-0.47671199 -0.103993 -0.45636401
-0.47585201 -0.041354701 -0.4443
-0.47027799 -0.104752 -0.45836899
-0.62972999 -0.39779299 -0.52046198
-0.88605398 -0.29199401 -0.51571
-0.59839797 -0.14059 -0.46561801
-0.710908 -0.24428201 -0.495855
-0.67983699 -0.184907 -0.48506099
-0.59699202 -0.27782899 -0.500489
-0.81125402 -0.52406001 -0.55472702
-0.82384098 -0.253665 -0.499879
-0.91378099 -0.221981 -0.49190301
-0.984725 -0.192811 -0.49741599
-0.59391803 -0.086173899 -0.45824099
-0.50015801 -0.46935499 -0.53066301
-0.512398 -0.42126599 -0.51833898
-0.88022602 -0.314594 -0.50841802
-0.60517901 -0.28652799 -0.49532601
-0.85350603 -0.074058697 -0.45564801
-0.51146901 -0.59784698 -0.55957597
-0.526721 -0.58941102 -0.56136698
-0.99307799 -0.495783 -0.552643
-0.52316803 -0.56739497 -0.55729097
-1.10114 -0.41051501 -0.54512399
-0.686037 -0.42703801 -0.51582199
-0.89437801 -0.37908101 -0.53028297
-1.0518 -0.341894 -0.52422398
-1.12938 -0.30421799 -0.52355701
-0.83425099 -0.359164 -0.53311098
-0.62893301 -0.397293 -0.51584399
-1.13527 -0.29211599 -0.52374798
-0.88991702 -0.331357 -0.54005897
-1.01764 -0.29504201 -0.52529699
-0.95399499 -0.293248 -0.51705199
-0.65127099 -0.34209299 -0.51715702
-0.79550397 -0.31180999 -0.51248801
-1.08992 -0.218245 -0.51138097
-0.981363 -0.23287299 -0.49939099
-1.0355099 -0.21019 -0.50711203
-0.683514 -0.27222401 -0.47138301
-0.87358099 -0.22795101 -0.49036801
-0.84575999 -0.22948501 -0.48862499
-0.67889798 -0.229679 -0.484229
-1.03967 -0.139018 -0.482611
-0.85425198 -0.035608102 -0.455331
-0.851951 -0.17259599 -0.48026201
-0.93266499 -0.153924 -0.48215899
-1.11041 -0.11097 -0.468191
-1.07381 -0.0845346 -0.479698
-1.07934 -0.043426 -0.47170699
-0.93502897 -0.065525703 -0.46556801
-0.856089 -0.065731898 -0.47088799
-0.91871703 -0.045302998 -0.45636201
-1.01494 -0.0213187 -0.45985901
-0.98294598 -0.036057301 -0.46745399
-0.96958798 -0.12725499 -0.47941199
-0.997361 -0.144612 -0.477826
-1.0991499 -0.130187 -0.48371401
-0.66709697 -0.255438 -0.45094401
-1.05119 -0.177953 -0.49784899
-0.729608 -0.350658 -0.51831597
-0.99972397 -0.32001701 -0.52633899
-0.99627203 -0.39144099 -0.53528202
-0.77182102 -0.436225 -0.528418
-0.85145402 -0.42577299 -0.53484797
-1.00975 -0.40556201 -0.53974497
-0.64261502 -0.50525701 -0.53812402
-1.15922 -0.370309 -0.54432499
-0.52656502 -0.58496302 -0.56370199
-0.63828403 -0.50945902 -0.54422098
-0.65380597 -0.429923 -0.53602302
-0.60416597 -0.345911 -0.51421797
-0.70696199 -0.317819 -0.50681299
-0.96028 -0.236991 -0.49737
-0.750799 -0.26260799 -0.48099101
-0.65303802 -0.223796 -0.48523301
-0.79775298 -0.043633699 -0.441533
-0.85738897 0.0042915498 -0.44925299
-1.00569 -0.47515801 -0.56755298
-1.164 -0.38385999 -0.54075497
-0.84649098 -0.42502299 -0.54226899
-1.03471 -0.217574 -0.50364298
-1.1321599 -0.37180099 -0.53903103
-0.79212302 -0.42295399 -0.52937502
-0.97416103 -0.39250499 -0.53592402
-0.91372502 -0.39705801 -0.52902597
-1.15174 -0.357079 -0.53397799
-0.776618 -0.41470399 -0.51399797
-0.87296599 -0.387407 -0.53106499
-1.07349 -0.31488499 -0.521846
-1.14767 -0.30179599 -0.52754599
-0.944947 -0.326758 -0.51541698
-1.04057 -0.262214 -0.51396602
-0.89354599 -0.24388701 -0.50217903
-0.97815102 -0.21357299 -0.49746299
-1.01746 -0.208332 -0.47649899
-0.94110501 -0.200752 -0.496984
-0.86615902 -0.17692 -0.49237299
-1.02359 -0.110015 -0.47976601
-0.985578 -0.100098 -0.472388
-0.88829303 -0.083826698 -0.46983299
-1.09387 -0.042239401 -0.46782401
-1.0026 -0.056203999 -0.46859199
-0.92504197 -0.067475498 -0.446619
-0.86690998 -0.050161202 -0.46201801
-1.0974 0.0065829302 -0.460913
-1.1337 -0.43614301 -0.55099499
-0.78340399 -0.41500899 -0.51528502
-0.80442703 -0.401573 -0.53342497
-0.75288802 -0.36721399 -0.52288097
-0.77349401 -0.32926199 -0.49434
-0.86572897 -0.15209401 -0.48599601
-0.84202999 -0.144915 -0.470272
-0.87399399 -0.070864096 -0.457854
-0.92171597 -0.048056699 -0.44027299
-0.86051702 -0.0093278997 -0.46292201
-1.14928 -0.40882 -0.547261
-0.99578297 -0.41271099 -0.53837597
-1.14484 -0.35773 -0.53479201
-1.08242 -0.32817799 -0.53353
-0.950822 -0.326848 -0.51851302
-0.88204002 -0.29623601 -0.51648301
-0.924124 -0.284713 -0.511608
-1.02637 -0.253297 -0.50797802
-0.88806599 -0.227072 -0.49692699
-0.91477901 -0.199062 -0.49107
-1.01107 -0.172023 -0.50011498
-1.1331 -0.113561 -0.48891199
-1.00886 -0.124693 -0.46559399
-0.92496502 -0.13435701 -0.47138199
-1.11277 -0.098448403 -0.48704299
-0.99743098 -0.057114702 -0.452517
-1.05063 -0.0279481 -0.46095601
-0.96691102 -0.038004398 -0.46939999
-1.12738 -0.105851 -0.48287901
-0.90981799 -0.15806399 -0.450187
-1.0333101 -0.216914 -0.50623298
-0.89004898 -0.36678201 -0.531596
-0.86036998 -0.33617201 -0.50906903
-0.96999598 -0.090213403 -0.4806
-1.01283 -0.0262488 -0.46828201
-1.10435 -0.37525001 -0.55040097
-0.937361 -0.46821499 -0.546363
-0.97042698 -0.42396301 -0.54253602
-0.99929702 -0.359263 -0.53434902
-1.04401 -0.278377 -0.51680601
-1.1076 -0.236434 -0.512613
-1.05976 -0.093856797 -0.48293599
-1.08893 -0.0287096 -0.437637
-1.00682 -0.23072299 -0.499176
-1.14701 -0.35700101 -0.53703302
-1.16213 -0.3883 -0.53868997
-0.935094 -0.46868801 -0.55625701
-1.0383101 -0.40604901 -0.54452598
-0.995579 -0.32157201 -0.52094901
-0.98837399 -0.302266 -0.51573801
-1.0372601 -0.246841 -0.51357198
-1.01656 -0.212786 -0.490311
-1.03365 -0.19843601 -0.50193399
-1.1003 -0.160218 -0.50018501
-1.02369 -0.111807 -0.48426899
-1.10629 0.0044352598 -0.47010699
-1.13597 -0.37229499 -0.536892
-1.10432 -0.37486801 -0.53832901
-1.0689501 -0.58782399 -0.59146303
-1.14931 -0.790923 -0.55848497
-0.83137298 -0.45017701 -0.54854703
-0.91158003 -0.22625101 -0.459584
-0.797414 -0.35866699 -0.52403897
-0.67615402 -0.240503 -0.487014
-0.884803 -0.022129901 -0.50272202
-0.75132298 -0.027980801 -0.473061
-0.60938001 -0.196428 -0.53665501
-0.925421 -0.47143999 -0.56665599
-0.79409599 -0.429851 -0.55117202
-0.61617202 -0.198814 -0.483978
-0.61966699 -0.35420701 -0.52394998
-0.67428499 -0.37187099 -0.53382403
-0.81373 -0.346975 -0.51902199
-0.939179 -0.30654201 -0.55647802
-0.780864 -0.32366899 -0.54045498
-0.68087 -0.16482501 -0.47312701
-0.86328298 -0.31565899 -0.54342699
-0.69736701 -0.42467201 -0.55342698
-0.62546402 -0.28029701 -0.49424499
-0.625265 -0.17808001 -0.46517801
-0.62046403 -0.34036899 -0.51548302
-0.46779701 0.072618604 -0.425179
-0.72370797 -0.49321201 -0.54555202
-0.73062402 -0.324193 -0.50085998
-0.92414898 -0.38778999 -0.52787203
-0.71764302 -0.231949 -0.48148999
-0.61542499 -0.094805501 -0.452869
-0.88164502 -0.0432298 -0.45969999
-0.478062 -0.022922199 -0.44760501
-0.47076499 -0.063727297 -0.47609201
-0.50769401 -0.287815 -0.50002599
-0.51573998 -0.33910999 -0.50510001
-0.69745803 -0.059558999 -0.45214501
-0.49796101 -0.19615901 -0.47894499
-0.50697303 -0.268105 -0.49241501
-0.475407 0.0043443199 -0.438586
-0.77193499 -0.23478501 -0.50678903
-1.00683 -0.31287399 -0.52636999
-0.68119198 -0.26404801 -0.51071203
-0.46345299 0.107081 -0.416026
-0.88179702 -0.39719 -0.54679799
-0.48964399 -0.109864 -0.45729801
-0.47161299 0.093262397 -0.41144601
-1.09649 -0.124559 -0.49146301
-1.06058 -0.37676901 -0.550749
-0.84508002 -0.33121699 -0.51965302
-1.11252 -0.57032102 -0.58651203
-1.01261 -0.47967899 -0.556032
-1.0141701 -0.48718801 -0.55610102
-1.1018 -0.37349799 -0.55170399
-1.05477 -0.047752202 -0.47656399
-1.0544699 -0.0270513 -0.47595
-1.1217 -0.39077699 -0.60861897
-1.0563999 -0.58251297 -0.587116
-0.98856902 -0.275677 -0.58466703
-0.69808102 -0.094097003 -0.50683802
-0.43713301 -0.46846601 -0.57697201
-0.56625301 -0.39162901 -0.58051097
-0.96948397 -0.24033301 -0.51748401
-0.81956899 -0.210118 -0.55988902
-0.4621 -0.19136 -0.46015301
-0.395174 -0.153606 -0.51224101
-0.69574201 -0.090652198 -0.48280701
-1.07017 -0.58040297 -0.59298003
-0.841618 -0.0547763 -0.49699
-0.42485601 -0.086218402 -0.49904799
-0.46734601 -0.32997701 -0.53452599
-0.497942 -0.39855099 -0.51495898
-0.482063 -0.53222501 -0.59197098
-0.74909401 -0.47017601 -0.594248
-0.492452 -0.446493 -0.56310099
-0.473894 -0.32946801 -0.53803098
-0.48133999 -0.31765699 -0.530065
-0.99462998 -0.124156 -0.491624
-0.428817 -0.0196552 -0.47940201
-0.44586599 -0.104847 -0.50093102
-1.13177 -0.21477699 -0.52250201
-1.1586601 -0.376746 -0.56873697
-0.44938001 -0.185378 -0.49581999
-0.44269499 -0.042801701 -0.475557
-0.49702799 -0.47736499 -0.56229001
-0.44459099 -0.00162051 -0.45886999
-0.51999402 -0.54332 -0.54860598
-0.59522998 -0.287175 -0.51836401
-0.96832401 -0.14222901 -0.51971602
-1.10394 -0.145281 -0.52008098
-0.49874201 -0.42635399 -0.54767901
-0.45220399 -0.083691798 -0.47459999
-0.634422 -0.56099498 -0.649647
-0.50371498 -0.55989099 -0.55837899
-0.52630699 -0.55734098 -0.56315303
-0.48977801 -0.497419 -0.564255
-1.13165 -0.36776 -0.57840699
-1.10181 -0.232357 -0.55041599
-1.12966 -0.19609401 -0.54088199
-0.56459498 -0.169369 -0.49481499
-0.441219 -0.095684797 -0.47333401
-0.47686601 -0.280848 -0.512465
-0.45114201 0.080692098 -0.42005301
-0.50233799 -0.52192003 -0.54794902
-0.51466501 -0.50905299 -0.548823
-0.49370301 -0.46823201 -0.549959
-0.61663502 -0.40221801 -0.53625
-0.487618 -0.376017 -0.53075802
-0.60695702 -0.343707 -0.510162
-0.496142 -0.316396 -0.51564199
-1.04704 -0.0198703 -0.492347
-0.44736299 -0.046950102 -0.446803
-1.0884 0.028377499 -0.46571201
-0.43979701 -0.12704299 -0.463038
-0.44707099 0.031188499 -0.43801701
-0.51592797 -0.519934 -0.54887801
-0.45784801 0.121705 -0.41762
-1.1059099 -0.139504 -0.51323402
-0.45220199 0.046718098 -0.43493399
-0.46933901 -0.145151 -0.47525001
-0.50711501 -0.55420101 -0.55659503
-0.50569397 -0.486036 -0.54821002
-0.49860501 -0.41683701 -0.53021801
-0.438319 -0.14566199 -0.44661501
-0.429553 -0.00172441 -0.44899899
-0.43594 0.090211101 -0.42972499
-0.49912199 -0.38236701 -0.52474397
-0.521703 -0.540034 -0.55504698
-0.520226 -0.55215198 -0.55828899
-0.51653397 -0.57941002 -0.56703699
-1.15407 -0.37449801 -0.54697198
-0.59101099 -0.43413901 -0.557702
-0.59002399 -0.34202799 -0.52887702
-0.489499 -0.33312601 -0.51215702
-0.4905 -0.29919201 -0.50596601
-0.461714 -0.26731101 -0.48561499
-1.10579 -0.17652 -0.51531303
-0.47108901 -0.17750099 -0.47745001
-0.46226099 -0.099845201 -0.45977801
-0.46132001 -0.066665098 -0.455746
-1.09308 0.0071785799 -0.487019
-0.45787901 0.056214899 -0.42574301
-1.07899 -0.58149201 -0.602274
-1.1186399 -0.57185 -0.59568501
-1.04406 -0.464573 -0.56445098
-0.51382601 -0.523027 -0.55484599
-0.50882 -0.453116 -0.53574902
-0.59921402 -0.372879 -0.53575897
-0.479482 -0.36388901 -0.50964397
-0.58526897 -0.34141001 -0.531955
-0.465067 -0.092956297 -0.46137199
-1.00791 -0.283337 -0.55936301
-0.48083499 -0.284334 -0.49860299
-0.47997701 -0.14710601 -0.46713299
-0.43918201 0.0840699 -0.437181
-0.48227501 0.00031236999 -0.43112701
-0.43679699 0.117345 -0.43583101
-0.50992 -0.582551 -0.56453598
-1.1296099 -0.324857 -0.54718
-0.59816301 -0.40092099 -0.54390103
-1.11427 -0.26387799 -0.53854197
-0.497991 -0.360448 -0.52022398
-0.489081 -0.31461099 -0.50537598
-0.48207399 -0.21077099 -0.47771901
-0.474224 -0.16714001 -0.478724
-0.457793 -0.0326786 -0.456411
-0.596668 -0.378295 -0.54140502
-0.44383201 0.056157999 -0.43973601
-0.44187599 0.112341 -0.431674
-0.52015102 -0.58131999 -0.56928498
-1.14364 -0.388136 -0.56267101
-0.514907 -0.55415398 -0.558402
-0.51257199 -0.473178 -0.54508299
-0.50258398 -0.4278 -0.53073001
-0.499255 -0.38269401 -0.52586001
-0.491317 -0.30224201 -0.50207102
-0.597574 -0.281784 -0.50452
-0.84329998 -0.018388299 -0.471416
-0.44025901 -0.00302899 -0.43613899
-0.44910499 0.0205967 -0.437893
-0.44523001 0.120931 -0.42283601
-1.13097 -0.32623899 -0.53977501
-0.60410798 -0.42636999 -0.54350197
-0.50411701 -0.43400401 -0.53259498
-0.49493101 -0.342861 -0.51103902
-0.46474099 -0.33505601 -0.494762
-0.483316 -0.26473099 -0.495047
-0.46051601 -0.211179 -0.47976699
-0.47063699 -0.119518 -0.46937501
-1.11768 -0.020070801 -0.47527
-0.458738 -0.0537076 -0.456
-0.45966199 -0.042298902 -0.45289999
-0.44887099 0.0456766 -0.43450299
-0.51844603 -0.444601 -0.54333198
-0.476917 -0.042382699 -0.44089299
-1.14204 -0.25105399 -0.54279399
-0.45722899 0.085797302 -0.432708
-0.49758601 -0.26396599 -0.50255102
-0.461871 0.055747502 -0.43525499
-0.59088898 -0.171556 -0.48409799
-0.487717 -0.104782 -0.473894
-0.49052501 -0.168845 -0.49271101
-0.631293 -0.078061499 -0.47858399
-0.53198898 -0.58045602 -0.57403302
-0.481417 -0.16122399 -0.483273
-0.46897399 -0.036162 -0.45270699
-0.59913099 -0.12967201 -0.47239199
-0.92694098 -0.063974798 -0.48369801
-0.47132701 -0.051397402 -0.45412099
-0.95506603 -0.077161998 -0.48472801
-0.66675198 -0.153889 -0.47995701
-0.92647398 -0.41106701 -0.55072403
-0.583125 0.0501417 -0.427699
-0.45976299 -0.053480599 -0.45228601
-0.58750099 -0.0436645 -0.44781101
-0.94311601 0.0063735698 -0.455064
-0.874336 -0.0118142 -0.45197499
-0.61843097 -0.0806664 -0.46165699
-0.59105098 -0.055833999 -0.45292601
-0.69882399 -0.070182502 -0.459975
-0.60595298 -0.35126299 -0.50519401
-0.49637601 -0.20793401 -0.47505301
-0.61828899 -0.124358 -0.464481
-0.522946 -0.48510501 -0.533059
-0.85681403 -0.195219 -0.48753101
-0.99704099 -0.087266102 -0.470608
-0.84731197 -0.117855 -0.47393
-0.64022499 -0.479628 -0.53337997
-0.934829 -0.096427597 -0.47555101
-0.50230402 -0.31389099 -0.50007701
-0.70891201 -0.300475 -0.50344002
-1.00072 -0.0135196 -0.462504
-0.51894897 -0.45618501 -0.52857798
-1.14407 -0.32754099 -0.53683001
-0.986283 -0.35351399 -0.52742898
-0.508744 -0.37239799 -0.51104701
-0.94464201 -0.147296 -0.48554999
-0.492827 -0.238271 -0.48503599
-0.57915097 -0.182006 -0.48211801
-0.66755003 -0.12620699 -0.47094801
-0.487757 -0.234292 -0.485632
-0.84805298 -0.13323399 -0.47685501
-0.61904299 -0.376858 -0.52025402
-0.60898697 -0.22622 -0.48694199
-1.00405 -0.100529 -0.48283601
-0.82974899 -0.077161901 -0.460843
-0.87616098 -0.47173801 -0.54738402
-0.51580602 -0.50481099 -0.53845203
-0.98573703 -0.34738001 -0.52614599
-1.06884 -0.298967 -0.52430499
-1.1086299 -0.217967 -0.49211699
-0.95608401 -0.216727 -0.502074
-0.85817301 -0.233263 -0.50010997
-1.0544 -0.177338 -0.498126
-1.05179 -0.15530699 -0.493386
-0.96779102 -0.14721701 -0.48749799
-0.48718801 -0.26016 -0.48599899
-0.79494703 -0.058575101 -0.473701
-1.05506 -0.40358299 -0.53896499
-0.819857 -0.25335899 -0.49666899
-0.90973699 -0.065752603 -0.474415
-0.85046703 -0.40566999 -0.51645201
-0.923114 -0.241592 -0.49656799
-1.1703399 -0.36827099 -0.55087
-1.05897 -0.114249 -0.49175999
-1.01846 -0.29729801 -0.51070398
-1.02363 -0.23037399 -0.51175803
-1.13026 -0.57962 -0.588072
-0.69457799 -0.25068799 -0.490686
-0.892349 -0.403148 -0.53186101
-0.49776301 -0.280123 -0.494048
-0.60633099 -0.21206699 -0.484806
-0.59832197 -0.138908 -0.46962199
-0.55879098 -0.090180703 -0.45577601
-0.57475001 -0.17709 -0.476475
-0.49365801 -0.25025001 -0.489687
-0.90368801 -0.33187601 -0.51900601
-0.72657299 -0.33318299 -0.51584297
-0.70898497 -0.47197399 -0.53456903
-0.99559999 -0.416031 -0.53930098
-0.99118203 -0.40005201 -0.53929597
-0.63216603 -0.42361501 -0.52484697
-0.80623001 -0.377893 -0.52294999
-0.67747402 -0.188738 -0.44867
-0.84389102 -0.093954101 -0.467969
-0.834405 -0.030690501 -0.45681199
-1.08504 0.0017632199 -0.46329701
-0.67186397 -0.34027499 -0.509121
-0.82630998 0.0039360002 -0.45568499
-0.78681099 -0.063062601 -0.45687199
-0.80747497 -0.16888601 -0.46843699
-0.80455601 -0.33720499 -0.51454198
-0.87474799 -0.248542 -0.498795
-0.85951102 -0.231023 -0.47066101
-0.87608701 -0.21854299 -0.50293499
-0.85260999 -0.16442101 -0.46059299
-0.83781999 -0.078574799 -0.44594499
-0.921785 -0.0685663 -0.43928599
-0.87022799 -0.32343099 -0.51588303
-0.98374999 -0.055624899 -0.47223401
-1.1686 -0.37650299 -0.546152
-1.06326 -0.26698399 -0.52222902
-0.92751998 -0.154429 -0.47376099
-1.03722 -0.038690701 -0.47145101
-1.0897599 -0.491474 -0.54889798
-1.09378 -0.042626899 -0.474612
-0.49298 -0.56456602 -0.57143903
-1.14132 -0.36343899 -0.55689198
-0.486081 -0.47374201 -0.55613202
-0.49945 -0.46989 -0.55484301
-0.61330199 -0.403557 -0.53868401
-0.89568102 -0.32817599 -0.54058701
-0.49941099 -0.41169801 -0.53830099
-0.48424599 -0.38150799 -0.532776
-0.481235 -0.32538101 -0.52142602
-0.57893503 -0.27896899 -0.516011
-0.57748502 -0.25720999 -0.51182902
-0.46036801 -0.12871701 -0.47766101
-0.458644 -0.10709 -0.47415999
-0.55730098 -0.086842999 -0.47320899
-0.442132 0.117351 -0.43575999
-1.12442 -0.35857499 -0.55128002
-0.502635 -0.55754 -0.57191002
-0.58671302 -0.368469 -0.53649598
-1.12173 -0.20866901 -0.51759601
-1.08451 -0.12696201 -0.498234
-1.11869 -0.1174 -0.494376
-1.00526 -0.064921297 -0.481996
-0.56088197 -0.085207596 -0.46948099
-0.53986698 0.00067083503 -0.453058
-0.45203799 0.032687299 -0.43480599
-0.99188101 -0.340837 -0.53615898
-1.00801 -0.021410899 -0.46858099
-1.04079 -0.225953 -0.51468402
-0.49742299 -0.46023801 -0.542418
-1.11725 -0.22762699 -0.51895601
-1.06987 0.0025323599 -0.467816
-0.43492299 0.076068498 -0.435689
-1.12159 -0.105546 -0.49398899
-0.612275 -0.40312201 -0.53508502
-0.47428599 -0.22444899 -0.49645701
-1.13862 -0.39997301 -0.557163
-1.16047 -0.36401999 -0.55636901
-1.12517 -0.36485499 -0.54845601
-1.1127599 -0.27131 -0.531546
-0.95353901 -0.23983499 -0.51759303
-0.64786297 -0.169411 -0.48877501
-0.93554801 -0.076983497 -0.48225701
-1.08904 -0.0013938399 -0.47498199
-0.89463198 -0.037972901 -0.464035
-0.46533701 -0.097311802 -0.46679401
-0.44386801 -0.080781899 -0.455652
-0.45960301 -0.056027301 -0.46167701
-0.55270803 -0.0148394 -0.45378101
-0.43669701 -0.0080422098 -0.44209799
-0.58589399 -0.36188301 -0.52832401
-1.02185 -0.0060900198 -0.47062799
-1.1147 -0.442276 -0.56491101
-1.1257 -0.119283 -0.49517101
-1.03842 -0.14304601 -0.499374
-0.485948 -0.30971199 -0.50997901
-0.99378502 -0.336597 -0.53457999
-0.449819 -0.00879543 -0.444518
-0.572707 -0.0253684 -0.45523101
-0.95001799 0.0073297 -0.460895
-1.15219 -0.378802 -0.54775703
-0.51636201 -0.57820398 -0.56941497
-1.04772 -0.21694601 -0.51395798
-1.08272 -0.34163001 -0.54371202
-0.705158 -0.395825 -0.543957
-0.92243201 -0.120755 -0.48730701
-1.10922 -0.173347 -0.50695503
-0.44765499 0.0308723 -0.43703699
-0.86999601 -0.49049899 -0.55830598
-1.06361 -0.48641899 -0.569336
-1.2204601 -0.47260299 -0.59305102
-1.00167 -0.016987501 -0.46897101
-0.84527802 -0.402174 -0.53845799
-0.90039098 -0.328453 -0.52836102
-0.96609801 -0.29099399 -0.5219
-1.0336699 -0.203446 -0.50839603
-0.846771 -0.253075 -0.50765401
-0.65863502 -0.24608301 -0.49415201
-0.70126599 -0.21862601 -0.49419701
-0.94210798 -0.129714 -0.48951
-0.63776398 -0.204162 -0.479072
-1.0522799 -0.092858702 -0.488792
-0.85865402 -0.13009 -0.478892
-0.80272001 -0.0144626 -0.46055999
-1.14564 -0.302991 -0.53213501
-1.02592 -0.34619799 -0.53787601
-0.56962901 -0.176303 -0.49738899
-0.60615498 -0.119438 -0.46920201
-0.46445301 -0.19424801 -0.478856
-0.485439 -0.32124501 -0.50719601
-0.45221701 -0.108564 -0.45285001
-1.11651 -0.226781 -0.51635402
-1.06034 -0.085015699 -0.49182501
-1.02176 -0.043813799 -0.474408
-1.08926 0.00104895 -0.46755901
-0.45736399 -0.077016599 -0.45419899
-1.04006 -0.37577701 -0.54008198
-0.875108 -0.29348201 -0.51797801
-0.49154699 -0.44075799 -0.52971399
-0.816401 -0.268848 -0.50812799
-0.87833297 -0.245974 -0.51282197
-0.68182802 -0.26509699 -0.50868303
-0.47976199 -0.263327 -0.490282
-0.84875298 -0.074670203 -0.47208101
-0.93131697 -0.129265 -0.48955399
-0.58113098 -0.27367899 -0.51350403
-0.55978698 -0.096533 -0.46659201
-0.84289402 -0.0142585 -0.46115801
-0.645293 -0.511491 -0.539572
-1.06865 -0.41016901 -0.55213201
-0.44737399 0.023437301 -0.43448201
-0.46034101 -0.090156697 -0.45664799
-0.50748998 -0.51207697 -0.542714
-0.47562599 -0.26834899 -0.52659601
-0.56278098 -0.183043 -0.48456901
-0.55866301 -0.174467 -0.48924401
-0.57223803 -0.25999901 -0.50163001
-1.11237 -0.17749999 -0.50823998
-1.11665 -0.020502901 -0.478378
-1.13034 -0.33312601 -0.541749
-0.466645 -0.17817201 -0.48199201
-1.02411 -0.132385 -0.494744
-1.06903 -0.410377 -0.55469102
-1.0060199 -0.119538 -0.489319
-1.08972 -0.044596501 -0.48123401
-0.45018899 -0.0430949 -0.453765
-1.02751 -0.25774899 -0.521667
-0.95734203 -0.242745 -0.51433498
-1.07233 -0.48510501 -0.571603
-0.61507499 -0.51223999 -0.55510598
-0.860484 -0.426474 -0.545645
-0.648377 -0.15093701 -0.48316199
-1.04538 -0.213505 -0.51062202
-1.0014 -0.426395 -0.55311501
-1.06236 -0.33827499 -0.538643
-1.04932 -0.31119099 -0.54093999
-1.0296201 -0.28728899 -0.52182698
-1.01688 -0.146218 -0.49390399
-0.99265599 -0.094411202 -0.48237899
-0.91394401 -0.036773201 -0.47037801
-0.95076501 -0.0107767 -0.47349101
-0.97948903 0.0125749 -0.47627199
-0.44116199 0.060610902 -0.42625201
-0.96771502 -0.28991199 -0.521622
-0.96338201 -0.461456 -0.55229902
-0.89038903 -0.48484299 -0.55631602
-0.97350401 -0.41055599 -0.55497998
-0.96720397 -0.38716799 -0.54438502
-0.864483 -0.393392 -0.53377301
-0.88518298 -0.36677599 -0.53376198
-0.665407 -0.063923597 -0.46187499
-0.56794697 -0.17156699 -0.48455799
-0.56916797 -0.177652 -0.48639601
-0.71215397 -0.189548 -0.48892
-0.48660401 -0.30906999 -0.50180602
-0.489988 -0.356226 -0.51231599
-0.78648698 -0.48113301 -0.55157799
-0.64022201 -0.491124 -0.54449499
-0.50105602 -0.44379199 -0.53225797
-0.69152302 -0.435509 -0.53794003
-0.44837999 -0.13319901 -0.45027199
-0.46316299 -0.071900301 -0.44507799
-0.74875098 -0.065151602 -0.46338001
-0.449393 0.019155201 -0.435258
-0.83469099 -0.43208799 -0.56672102
-0.70458198 -0.442211 -0.53923202
-0.64579499 -0.44915 -0.53602898
-0.666668 -0.41621301 -0.50637603
-0.70885098 -0.40575299 -0.53053099
-0.78046697 -0.32305899 -0.51942003
-0.67244297 -0.301514 -0.50244498
-0.73454303 -0.27535 -0.50458002
-0.59244901 -0.275359 -0.50577599
-0.70425898 -0.21664 -0.48983601
-0.64081597 -0.198771 -0.48194501
-0.62162 -0.199178 -0.48215899
-0.66143101 -0.187612 -0.48175299
-0.649041 -0.087892301 -0.46181601
-0.472976 -0.180158 -0.47429201
-0.47930801 -0.240548 -0.483816
-0.49409401 -0.377767 -0.51757801
-0.59378201 -0.34877601 -0.52000898
-0.51757199 -0.59105998 -0.55592501
-0.483731 -0.29138499 -0.494964
-0.55918002 -0.0991522 -0.46664301
-0.46403399 -0.104591 -0.457986
-0.45584401 -0.0093756504 -0.43588501
-0.44574001 0.046695098 -0.42787001
-0.604276 -0.27845901 -0.50018603
-0.50709498 -0.48436299 -0.54087597
-0.50073701 -0.41873699 -0.52448797
-0.58126801 -0.26144099 -0.50149202
-0.47110701 -0.158567 -0.46993199
-0.466452 -0.12931301 -0.459856
-0.457219 -0.048069399 -0.44319499
-0.51289898 -0.52314901 -0.56544399
-1.03824 -0.32422999 -0.53748697
-0.4876 -0.32014501 -0.51788902
-0.47286201 -0.17568 -0.487932
-0.457982 -0.055368599 -0.46368101
-0.441338 0.063515998 -0.44236699
-1.12607 -0.385851 -0.55477297
-1.02573 -0.31726199 -0.53852499
-0.503281 -0.53636998 -0.56265098
-0.852669 -0.00656927 -0.47670999
-0.56079799 -0.17769501 -0.49524301
-0.57738 -0.273738 -0.50910801
-0.47597399 -0.20759401 -0.49186501
-0.49611601 -0.41057301 -0.53119397
-0.54890299 -0.090777002 -0.473694
-1.115 -0.12727401 -0.49897099
-0.46338001 -0.118934 -0.47358501
-0.461146 -0.0923106 -0.46410599
-1.10447 -0.0124984 -0.47689599
-1.12167 -0.68142498 -0.59413099
-0.94130099 0.0128508 -0.45551401
-0.91164303 -0.066251002 -0.47563201
-0.798693 -0.40070099 -0.53806698
-1.1469899 -0.36440399 -0.55386698
-1.10272 -0.076044999 -0.490426
-1.0449899 -0.189714 -0.50917798
-1.08285 -0.34194201 -0.54060602
-1.05054 -0.45921001 -0.56059498
-0.99438202 -0.196401 -0.51846302
-0.86583501 -0.376432 -0.53606898
-0.94655198 -0.284118 -0.52222103
-0.86065698 -0.0080787204 -0.46484199
-0.83716202 -0.131487 -0.48360401
-0.456806 -0.034894999 -0.44848001
-0.740704 -0.44173601 -0.565516
-0.51058698 -0.50087398 -0.54572201
-0.76093102 -0.38183901 -0.53410202
-0.666933 -0.26318899 -0.50296998
-0.67500103 -0.162976 -0.48164099
-0.668167 -0.085286401 -0.46820599
-0.64881498 -0.083813302 -0.466777
-0.66913199 -0.0635406 -0.46318501
-0.51323599 -0.55215299 -0.56085098
-0.659747 -0.15317599 -0.47907701
-0.58755702 -0.18392999 -0.485376
-0.450396 0.0223125 -0.43821299
-0.457405 -0.064559303 -0.45054099
-0.47560501 -0.21202201 -0.48504499
-0.91460103 -0.41030899 -0.52345401
-0.985394 -0.443436 -0.55591899
-0.89215201 -0.42752001 -0.54494101
-0.96960002 -0.391137 -0.54754198
-0.84864098 -0.40223101 -0.53722602
-0.964724 -0.32453701 -0.54165
-0.91737503 -0.28184801 -0.51381201
-0.863868 -0.24572299 -0.51014
-0.83922303 -0.22555301 -0.48970601
-0.86805701 -0.20602299 -0.498413
-0.85833198 -0.151696 -0.48572901
-0.84240502 -0.070023097 -0.470364
-0.82541603 -0.044521999 -0.46080899
-0.81247097 -0.0080008302 -0.44727701
-0.65388602 -0.46206599 -0.53940099
-0.76536399 -0.41521999 -0.54990399
-0.74338698 -0.41378 -0.52832401
-0.66904402 -0.42792499 -0.54859602
-0.72108799 -0.36744699 -0.533167
-0.80483401 -0.32259199 -0.53708398
-0.72191 -0.332472 -0.53089201
-0.749309 -0.27372801 -0.51241499
-0.75353903 -0.238765 -0.50900197
-0.644961 -0.27455401 -0.52447999
-0.70721 -0.24611899 -0.52104098
-0.64183098 -0.220024 -0.49312001
-0.68519199 -0.440954 -0.53418303
-0.63866299 -0.14664 -0.47498399
-0.62665099 -0.072345302 -0.45806101
-0.683505 -0.036107 -0.455948
