# .PCD v0.7 - Point Cloud Data file format
VERSION 0.7
FIELDS x y z
SIZE 4 4 4
TYPE F F F
COUNT 1 1 1
WIDTH 107
HEIGHT 1
VIEWPOINT 0 0 0 1 0 0 0
POINTS 107
DATA ascii
2.84148 0.562159 8.4646902
2.78983 0.56828099 8.4608297
2.7637899 0.56956702 8.4504099
2.83833 0.56374198 8.4502802
2.90784 0.55048603 8.4142799
2.75634 0.574835 8.4489098
2.8107901 0.56186599 8.4452896
2.77935 0.59678102 8.4593496
3.0109999 0.54486299 8.4604197
2.8894601 0.54943901 8.4384804
2.8489499 0.56462699 8.4698601
2.9675 0.54116702 8.4321299
2.9009299 0.54906797 8.4339504
2.8290901 0.55096 8.4101696
2.7685599 0.568124 8.4367399
2.9387801 0.55347198 8.4629602
2.8255799 0.56059802 8.4307604
3.0118599 0.541875 8.4623299
3.17994 0.51273501 8.4314604
2.8647001 0.55968201 8.4338398
2.7574501 0.56402701 8.4384298
2.78773 0.56820101 8.4323301
3.2047901 0.50256503 8.4034996
2.91047 0.54270601 8.42799
3.1803601 0.506962 8.4008503
2.88292 0.55304998 8.4460602
3.1468 0.50911099 8.39042
2.74735 0.572411 8.4570999
3.1237199 0.51733398 8.4053802
3.10379 0.52127099 8.4310102
3.0008399 0.53170598 8.4256802
2.9621 0.54386699 8.4342604
2.89007 0.55639398 8.4632196
3.00454 0.52744198 8.4206104
3.1215601 0.51331902 8.4056101
2.8583701 0.55254298 8.4358597
2.77759 0.55105799 8.3913202
2.80794 0.54755801 8.40627
2.8959799 0.57860601 8.4596796
2.7491701 0.560579 8.4322004
2.7274101 0.65710098 8.4526196
2.87293 0.54805797 8.4374104
2.79988 0.55790901 8.4151497
2.7203701 0.65930802 8.4510298
2.9612899 0.532327 8.4242897
2.9129901 0.53666699 8.4224195
2.9684401 0.55754203 8.4277802
2.91219 0.54846698 8.4521399
2.8521199 0.572469 8.4379101
2.7885599 0.57713902 8.4332399
2.7567101 0.560022 8.4334898
2.77368 0.56672198 8.4325104
2.9215 0.54982197 8.4330397
2.82459 0.58685601 8.4405699
3.00354 0.56263399 8.4345102
3.0137899 0.538167 8.4646997
2.8485 0.54160601 8.4137697
2.90341 0.53638899 8.4264698
2.92817 0.56949002 8.4468403
2.91184 0.53008002 8.4271498
2.83758 0.54381299 8.4268103
2.86883 0.54864401 8.4253998
2.97381 0.532175 8.4431295
2.8956101 0.53214902 8.4217997
2.92909 0.55137599 8.4475899
2.8968999 0.53687501 8.4286499
2.95502 0.52095401 8.4212103
2.9142799 0.53280902 8.4279604
2.9590499 0.54352701 8.4572296
2.75472 0.55762601 8.4063902
2.81862 0.549878 8.3919697
2.9091899 0.55179799 8.4589596
2.88709 0.56350899 8.46068
2.98013 0.53895998 8.4468203
2.98686 0.52210402 8.4072199
2.9976499 0.56022 8.4481201
2.91785 0.55372 8.4421997
2.8736401 0.55223501 8.4128504
2.9215 0.55013299 8.4386101
2.8290801 0.561634 8.4385405
2.92327 0.55218899 8.4488897
2.8026099 0.56624001 8.4182301
2.9418299 0.57527399 8.4466896
2.9700601 0.54504198 8.4398403
2.8833301 0.58064198 8.45819
2.8364899 0.55188602 8.3961697
3.0801301 0.52999097 8.4350796
2.8965099 0.58288801 8.4523497
2.7576799 0.57498902 8.4431896
2.9256899 0.55026901 8.4511604
2.93838 0.550883 8.4476604
2.80762 0.56509501 8.4340401
2.9295199 0.55624098 8.4467602
3.0090401 0.56903303 8.4509697
2.8738999 0.5589 8.4405403
3.10865 0.532673 8.4328098
2.9981799 0.782713 8.3137302
3.0100501 0.77564001 8.3180904
2.8421099 0.75010401 8.3856497
2.71065 0.76832998 8.3905897
2.98879 0.72176701 8.3923998
2.91856 0.75703299 8.4640903
3.0364201 0.73356003 8.52283
2.9100499 0.751683 8.4738398
2.7766199 0.77025598 8.4646902
3.0048299 0.74292803 8.4607897
2.8558099 0.74264401 8.4290895
