# .PCD v0.7 - Point Cloud Data file format
VERSION 0.7
FIELDS x y z
SIZE 4 4 4
TYPE F F F
COUNT 1 1 1
WIDTH 153
HEIGHT 1
VIEWPOINT 0 0 0 1 0 0 0
POINTS 153
DATA ascii
-1.36476 -0.654728 3.12711
-1.43689 -0.554676 3.09412
-1.38968 -0.541475 3.1430099
-1.27598 -0.64067101 3.20397
-1.30197 -0.66829598 3.1672101
-1.42428 -0.52826202 3.1262801
-1.33042 -0.513771 3.1452301
-1.26324 -0.63320702 3.1674299
-1.42196 -0.52583498 3.1146901
-1.352 -0.68501598 3.1649599
-1.31188 -0.64064097 3.1607699
-1.27073 -0.52936298 3.13746
-1.23915 -0.60550201 3.1351399
-1.4076 -0.51529503 3.1067901
-1.3435301 -0.68084198 3.1577899
-1.255 -0.63511097 3.13784
-1.388 -0.66934103 3.1570401
-1.2904 -0.53332698 3.14413
-1.31968 -0.59721601 3.15418
-1.25051 -0.64037699 3.1609099
-1.33367 -0.51171702 3.1382301
-1.31812 -0.67265898 3.1638401
-1.25091 -0.63870698 3.1185701
-1.31081 -0.594513 3.1482401
-1.33697 -0.50962102 3.13322
-1.43367 -0.63311601 3.1441
-1.28205 -0.57886702 3.14533
-1.23954 -0.55824298 3.14324
-1.38851 -0.667328 3.15575
-1.32716 -0.64356601 3.1415701
-1.3547 -0.68856198 3.14411
-1.24854 -0.55425799 3.14764
-1.26592 -0.63761902 3.15873
-1.2453901 -0.654167 3.15081
-1.27634 -0.52347302 3.1487
-1.31213 -0.65112299 3.1533501
-1.2855099 -0.53458798 3.1438999
-1.3454 -0.51047897 3.1356201
-1.27096 -0.70206499 3.14607
-1.401 -0.55702198 3.1382899
-1.24256 -0.648615 3.1536
-1.25366 -0.60209399 3.15031
-1.34425 -0.51351899 3.1343501
-1.27902 -0.52722001 3.1461699
-1.29917 -0.52280998 3.1383901
-1.40693 -0.54215002 3.1382101
-1.34031 -0.50683898 3.13818
-1.3498 -0.67767698 3.1572199
-1.25404 -0.60933399 3.1457801
-1.28801 -0.51838499 3.13416
-1.34038 -0.68028998 3.1648901
-1.23667 -0.61091 3.1546199
-1.26425 -0.69188899 3.14101
-1.35071 -0.67686301 3.15536
-1.3993599 -0.63941902 3.1446099
-1.42663 -0.59787101 3.1394401
-1.30065 -0.529064 3.1377699
-1.25418 -0.604357 3.1505499
-1.30426 -0.66824597 3.1521001
-1.34742 -0.51406902 3.1347799
-1.25059 -0.601381 3.1505799
-1.3253 -0.65338498 3.15096
-1.27516 -0.64056402 3.15292
-1.24322 -0.61653203 3.1527901
-1.35655 -0.68354899 3.1570899
-1.4064699 -0.63924402 3.14465
-1.25855 -0.60285598 3.14937
-1.22908 -0.58950597 3.1573901
-1.42101 -0.59595799 3.1406901
-1.29565 -0.52029002 3.1375
-1.33689 -0.68001199 3.1634901
-1.2764 -0.56127799 3.1433301
-1.23382 -0.60760301 3.1443901
-1.23519 -0.59255397 3.1486599
-1.2739 -0.64225602 3.1507101
-1.2594 -0.57121098 3.1397901
-1.30267 -0.51919699 3.1388299
-1.25248 -0.64147699 3.1507101
-1.2430201 -0.56503302 3.14886
-1.23277 -0.58837497 3.1493399
-1.2954299 -0.580787 3.13816
-1.31203 -0.578394 3.1407101
-1.27626 -0.51888198 3.13906
-1.29415 -0.51603103 3.138
-1.34715 -0.51385599 3.1324799
-1.35163 -0.67323297 3.1540201
-1.42644 -0.60041898 3.1398201
-1.30852 -0.589109 3.17363
-1.29895 -0.56392401 3.1458399
-1.4190201 -0.54904199 3.1343701
-1.42079 -0.544972 3.1396999
-1.29565 -0.65779197 3.1593001
-1.24119 -0.59152001 3.14821
-1.31494 -0.60007602 3.1558101
-1.40988 -0.53373402 3.1356699
-1.2529 -0.64142501 3.1524799
-1.27441 -0.55951899 3.15099
-1.2992001 -0.66073602 3.1486599
-1.25629 -0.54167598 3.14096
-1.28095 -0.68966597 3.15818
-1.24632 -0.60715699 3.1529701
-1.41751 -0.54667997 3.13199
-1.29711 -0.56453699 3.1393299
-1.26123 -0.54588503 3.14432
-1.34052 -0.50331599 3.1394701
-1.26715 -0.64322001 3.1587801
-1.2820801 -0.53611702 3.14572
-1.25703 -0.54745799 3.1414499
-1.3351901 -0.50243998 3.1454201
-1.24966 -0.543549 3.1439199
-1.2475801 -0.54614002 3.14625
-1.2362 -0.60950398 3.1534901
-1.30803 -0.55353999 3.11146
-1.2577699 -0.54112101 3.13503
-1.4176 -0.57704598 3.14413
-1.45441 -0.656138 3.06285
-1.248 -0.60431099 3.1551099
-1.4196 -0.57568198 3.1444499
-1.3059601 -0.55040801 3.10447
-1.4139 -0.58356303 3.1443601
-1.32888 -0.521451 3.1496999
-1.28866 -0.53086698 3.1429701
-1.34778 -0.67310601 3.1547799
-1.26346 -0.654091 3.15311
-1.25845 -0.54958898 3.1457701
-1.33295 -0.518381 3.1366
-1.2398601 -0.60910797 3.1547301
-1.25448 -0.61172903 3.1491399
-1.36499 -0.68596101 3.1529601
-1.35783 -0.68442798 3.15396
-1.33718 -0.50409597 3.12854
-1.34056 -0.672723 3.1445301
-1.25545 -0.64442003 3.1456699
-1.41361 -0.55403697 3.1292
-1.3381701 -0.50349498 3.1222899
-1.26603 -0.63312399 3.14078
-1.35437 -0.54692298 3.1184101
-1.3692 -0.50658 3.1251199
-1.32722 -0.64053297 3.12622
-1.24606 -0.56900698 3.1482201
-1.32363 -0.51288402 3.11731
-1.28232 -0.51287502 3.1303599
-1.44999 -0.57137299 3.10625
-1.25946 -0.65373999 3.13957
-1.2563699 -0.63347602 3.14152
-1.404 -0.55431998 3.1263199
-1.27297 -0.50216103 3.11303
-1.25237 -0.59768599 3.1249001
-1.34384 -0.55149299 3.1320701
-1.3212399 -0.55080003 3.1298399
-1.28774 -0.51262099 3.12836
-1.26352 -0.65018898 3.1310401
-1.30361 -0.67005599 3.12992
