# .PCD v0.7 - Point Cloud Data file format
VERSION 0.7
FIELDS x y z
SIZE 4 4 4
TYPE F F F
COUNT 1 1 1
WIDTH 77
HEIGHT 1
VIEWPOINT 0 0 0 1 0 0 0
POINTS 77
DATA ascii
7.8443098 -0.67429399 5.9706702
7.9253201 -0.70319599 5.8854599
7.8135099 -0.65958101 5.9602399
7.8343 -0.67471898 5.9577098
7.8025899 -0.67033899 5.94625
7.7376399 -0.65164202 5.9439301
7.8506598 -0.67247897 5.9590001
7.9004202 -0.68194503 5.9450202
7.8773799 -0.67795002 5.9434299
7.8067999 -0.65856397 5.94872
7.7895002 -0.657848 5.9196301
7.8291001 -0.67536801 5.9305501
7.7775698 -0.65393698 5.9103799
7.7252302 -0.64086801 5.9260402
7.8312302 -0.66229701 5.9911098
7.8255401 -0.66763902 5.9484
7.81042 -0.66997999 5.90517
7.7916098 -0.66457802 5.92665
7.8081002 -0.66733801 5.9405198
7.81566 -0.66457802 5.9379201
7.8487601 -0.67476302 5.95855
7.8187699 -0.68496299 5.9099398
7.8229799 -0.66246599 5.9645
7.8091798 -0.672925 5.9679799
7.8164201 -0.67196602 5.9057498
7.81319 -0.66824698 5.9477401
7.81422 -0.66906202 5.9770398
7.8161302 -0.67220998 5.9077802
7.8179002 -0.66602099 5.9431601
7.8334599 -0.61426902 6.0430198
7.8213301 -0.66731799 5.9458799
7.8128901 -0.66066098 5.9883299
7.8164401 -0.66712898 5.92769
7.8158002 -0.67581201 5.9053502
7.8147202 -0.67136198 5.9025002
7.8200498 -0.67037398 5.9482799
7.8847299 -0.67273098 5.9813099
7.8200798 -0.66600001 5.93753
7.8227201 -0.66579902 5.9449701
7.8197398 -0.670376 5.9082699
7.8296599 -0.67686403 5.9127302
7.7863202 -0.67347699 5.92875
7.81915 -0.66779298 5.92625
7.8162398 -0.66776198 5.9324698
7.8288498 -0.66468799 5.9783802
7.8171501 -0.67740101 5.9061699
7.8168001 -0.67082 5.96457
7.8231301 -0.655985 5.9658599
7.81954 -0.66794997 5.9462099
7.8260002 -0.65970999 5.9823298
7.81213 -0.665236 5.9848299
7.81639 -0.66749799 5.9256001
7.8171902 -0.66518903 5.9394002
7.8193798 -0.65124601 5.9822001
7.81778 -0.671803 5.9092202
7.8151898 -0.671462 5.9019699
7.8147001 -0.67543399 5.9315901
7.8206301 -0.67809302 5.9092798
7.8178 -0.66648698 5.9334698
7.8146701 -0.67006499 5.9735098
7.8175001 -0.66140503 5.9815502
7.8146801 -0.66841 5.9236598
7.8211198 -0.65766603 5.9807401
7.8131399 -0.68854201 5.9049902
7.8213201 -0.67466301 5.90412
7.8179898 -0.67630398 5.9665999
7.82267 -0.66662598 5.9458098
7.9004698 -0.67635697 5.9832802
7.8245001 -0.66592997 5.94309
7.81639 -0.66967303 5.9088101
7.82376 -0.66193199 5.9864802
7.8348598 -0.67040998 5.9090199
7.8287501 -0.66678798 5.9498401
7.8333001 -0.66815299 5.9706998
7.8263602 -0.65858698 5.9690299
7.8221202 -0.66557997 5.9380698
7.8193898 -0.67058003 5.9288902
