# .PCD v0.7 - Point Cloud Data file format
VERSION 0.7
FIELDS x y z
SIZE 4 4 4
TYPE F F F
COUNT 1 1 1
WIDTH 739
HEIGHT 1
VIEWPOINT 0 0 0 1 0 0 0
POINTS 739
DATA ascii
3.0255599 0.064537503 2.0434799
3.6819201 -0.118996 1.34499
3.6379099 -0.14561599 1.47921
3.98313 -0.072244301 1.91343
3.5890801 -0.103817 1.92476
3.8133099 -0.0633559 1.92935
3.75914 -0.031559601 2.0245399
3.8136599 -0.037921298 2.0727701
3.83795 -0.0421407 2.0216601
3.93591 -0.053256098 2.0003099
3.74983 -0.040129501 2.03531
3.9643099 -0.083609499 1.9841599
3.9814301 -0.057404201 1.91448
3.5251501 -0.096478902 1.92308
3.62831 -0.027616801 2.0734601
3.7324901 -0.0442595 2.09075
3.9616499 -0.072636597 1.91396
3.99772 -0.0668846 1.9794101
3.5622101 -0.144219 1.72059
3.6240301 -0.0301101 2.07142
4.0273099 -0.069899902 1.9165
3.76457 -0.027956801 2.02636
3.8143799 -0.037526499 2.0162799
3.86146 -0.0454177 2.02279
3.5201499 -0.0974776 1.92449
3.5601299 -0.10215 1.93725
3.8152599 -0.058676999 1.9233
3.8406701 -0.045967799 2.0106599
3.79583 -0.037574701 2.0350101
3.9704199 -0.0697456 1.90988
3.85288 -0.044763401 2.0257499
3.5415201 -0.110894 1.84935
3.5738399 -0.11501 1.8940001
3.67541 -0.040874898 1.85789
3.73522 -0.038048401 2.0292101
3.8715899 -0.060210399 1.94165
4.04528 -0.077164002 1.97689
4.0696502 -0.083815597 1.95988
3.6064301 -0.0217006 2.0657499
3.7206199 -0.0352978 2.02299
3.9820299 -0.073842503 1.91283
3.99809 -0.068540603 1.9845999
4.0488901 -0.069421001 2.07741
3.5505099 -0.101428 1.97948
3.6930301 -0.048479401 1.9023401
4.0213399 -0.0740989 2.01881
3.58425 -0.125918 1.73531
3.6341901 -0.12791499 1.49061
3.5488 -0.112753 1.85674
4.0281501 -0.076367699 2.00793
3.50301 -0.093773402 1.92743
3.539 -0.0957385 1.9927599
3.85304 -0.047658101 2.0263901
3.85077 -0.063845798 1.93576
3.80899 -0.043279 2.07392
3.78581 -0.044270501 2.04228
3.5030401 -0.080548398 2.0107701
3.61781 -0.010037 2.08002
3.80972 -0.089452699 1.63415
3.87099 -0.0514034 2.00981
4.0360999 -0.075913496 1.9259599
4.0409999 -0.0585053 2.0441401
4.0366502 -0.069663599 1.93046
4.0309701 -0.075165898 2.01068
3.99102 -0.073217198 1.92214
3.5807199 -0.119341 1.87694
3.5740299 -0.113929 1.84891
3.8414199 -0.055053301 1.9351701
3.5487599 -0.093160801 2.0548301
3.5875299 -0.0111866 2.0671999
3.65557 -0.039937198 1.91654
4.0313201 -0.073364899 1.93322
4.0230899 -0.071279898 2.0126901
3.97914 -0.072642401 1.92159
3.6598599 -0.043952301 1.8520401
3.5706601 -0.10615 1.93624
3.8452599 -0.045021702 2.0332699
3.84322 -0.063783102 1.93428
3.4958899 -0.098194197 1.91483
3.3891399 -0.14477301 1.6828001
3.4928999 -0.111243 1.9045399
3.5717199 -0.105799 1.9949501
3.71387 -0.0397337 2.0321
3.8159599 -0.052109301 1.89906
4.04706 -0.069793001 2.0806
4.02528 -0.070882499 2.0083699
3.9951899 -0.072959803 1.98919
3.5975499 -0.018249899 2.0701101
3.49669 -0.10342 1.91864
4.0536599 -0.077657104 1.98745
3.62924 -0.132081 1.48877
3.56234 -0.11585 1.86895
3.5646901 -0.10748 1.93637
3.5556099 -0.0972578 1.98632
3.62113 -0.033292901 2.02212
3.83389 -0.061183799 1.93797
3.8604801 -0.053670999 1.9674799
3.97738 -0.086696498 1.99904
4.01688 -0.070272997 2.0179999
4.0541501 -0.085284799 1.93521
3.61537 -0.0297201 1.98105
4.0165701 -0.071238004 2.0081799
3.5491099 -0.101705 1.98322
3.5590301 -0.14895301 1.87945
3.6020999 -0.031075999 2.08091
3.61865 -0.0324631 2.00424
3.7551899 -0.064180799 2.0139501
3.7242701 -0.0347072 2.0346301
3.76632 -0.054004699 1.93612
3.9105699 -0.058203299 2.0064099
4.0509901 -0.075199798 2.0368099
4.0056 -0.073730998 1.99507
3.8366001 -0.051790699 1.89823
3.6511199 -0.042173501 1.88607
3.6201799 -0.086012401 1.64557
3.5506301 -0.097999804 2.00857
3.8622899 -0.054497201 1.96567
3.85325 -0.044886 2.0291901
3.31565 -0.044954199 1.91565
3.50419 -0.085474998 2.05794
3.5480599 -0.111245 1.94977
3.57794 -0.088635199 2.0367501
3.6972401 -0.036577798 2.0458801
3.64587 -0.0333701 1.8681
3.7240901 -0.050067499 1.9572999
3.83599 -0.059894402 1.93706
3.85799 -0.047374301 2.01492
3.8952301 -0.063581899 1.91018
4.0510001 -0.075168699 1.99139
4.0508599 -0.075879201 1.94209
3.97404 -0.064307697 2.02812
3.93507 -0.071317397 1.99077
3.724 -0.047708102 1.9405299
3.55107 -0.107623 1.84606
3.5608799 -0.099741898 2.00524
3.83478 -0.051085301 1.89991
3.8478601 -0.0428533 2.0357499
3.5373099 -0.091209799 1.98501
3.5474999 -0.101572 1.93549
3.8043799 -0.059012499 1.92305
3.9986899 -0.060641401 1.91704
3.98962 -0.071845897 1.91625
3.8155601 -0.0380353 2.03475
3.9360299 -0.068014599 1.90969
3.83179 -0.043989301 2.0302401
3.6238699 -0.0236312 1.9833601
3.6182301 -0.085730202 1.55625
4.0419102 -0.073713101 1.95635
3.5829599 -0.134261 1.72621
3.0537901 0.0081171999 1.66392
3.5190201 -0.091947198 2.0211401
3.55671 -0.107774 1.86845
3.73282 -0.102633 1.73295
3.71104 -0.0376531 2.0304101
3.69068 -0.0380577 1.8825901
3.76875 -0.052259099 1.93536
3.8531201 -0.057654701 2.0235
3.7659099 -0.111808 1.29396
3.8873301 -0.068041101 1.90993
3.94029 -0.064322799 2.02425
3.9985499 -0.0665626 2.02665
4.0457001 -0.070972197 1.99612
4.0488501 -0.075959399 1.9596
4.04949 -0.078133099 1.94976
4.04319 -0.0658243 2.0153301
4.0434299 -0.071176499 2.04828
4.0015702 -0.074625902 1.99231
3.92557 -0.0727138 1.9938101
3.82234 -0.059586398 1.93634
3.7223599 -0.0462153 1.93373
3.53146 -0.14960501 1.57701
4.0450301 -0.0616525 2.0467501
3.9723301 -0.071878098 1.98549
3.9319401 -0.066386499 1.98254
3.55268 -0.102645 1.94836
3.57131 -0.108418 1.90009
3.57234 -0.087525398 2.0055101
3.56986 -0.083492801 2.0197401
3.6107399 -0.0280672 2.07548
3.6064899 -0.024329601 1.977
3.71526 -0.032521501 2.0315299
3.8062601 -0.038754102 2.03407
3.8589301 -0.0484084 1.97385
3.9684 -0.0634294 2.02403
4.0131102 -0.068199404 2.0095201
4.0536799 -0.0767368 1.9370199
4.0529599 -0.079020001 1.9407001
4.0436001 -0.069151901 2.0292101
4.0120802 -0.065290697 2.0014701
3.9263201 -0.072507799 1.9917099
3.49562 -0.118676 1.90268
4.0485902 -0.068406098 1.9598401
4.0485301 -0.075773798 1.9583499
3.81112 -0.0565206 1.9360501
3.7225201 -0.046326399 1.9337699
3.6907899 -0.037898298 1.88384
3.7144401 -0.0376583 2.02792
3.58425 -0.14066701 1.74397
3.5540199 -0.10796 1.8627599
3.9282501 -0.069344498 1.90977
4.0465899 -0.072068103 1.96608
4.0454898 -0.070137799 1.9980299
4.0507398 -0.078143597 1.94633
4.0450902 -0.072081499 2.0201099
4.0082402 -0.065631397 2.0200901
3.6145699 -0.027770501 2.0748701
3.5738399 -0.110317 1.85207
2.90762 -0.083939403 1.66952
3.0750401 0.0035749399 1.67563
3.56391 -0.097332202 1.98622
3.57482 -0.104204 1.93083
3.6475799 -0.034003001 1.87445
3.75052 -0.048096299 2.0564401
3.7228 -0.0470533 1.93731
3.7209201 -0.039076 1.96997
3.77982 -0.0530602 2.03407
3.75893 -0.044646699 1.88253
3.8259599 -0.050870199 1.89937
3.9946699 -0.078361601 1.99
3.8031099 -0.037691802 2.07517
3.8544199 -0.0463784 2.03619
3.9293599 -0.078424603 2.00088
3.85604 -0.0583825 1.9433
3.5459001 -0.115999 1.8597701
3.8601799 -0.044261601 2.0062799
4.00176 -0.075766899 1.99073
3.9816899 -0.068693601 1.9220999
3.9463 -0.064449899 2.02285
3.9352701 -0.066596404 1.9155
3.05512 0.0159334 1.72675
3.22158 -0.033641499 1.85562
3.08689 0.014383 1.68287
3.53339 -0.0774213 2.07581
3.54983 -0.099290401 1.9474699
3.57341 -0.109592 1.90021
3.6031401 -0.020031599 1.98448
3.6572199 -0.0367149 1.84498
3.68645 -0.03057 1.9852
3.73036 -0.045761801 2.09729
3.69541 -0.0413366 1.88911
3.73175 -0.044753201 2.05686
3.7209201 -0.047247998 1.95061
3.7546699 -0.049961701 2.0569999
3.7497399 -0.044200402 1.87889
3.7867601 -0.070001602 1.66425
3.8431799 -0.041136999 2.04865
3.85991 -0.0483265 2.02314
3.8589201 -0.048984502 1.98485
3.8587201 -0.043754499 2.0276401
3.86218 -0.057951801 1.90537
3.8952501 -0.0638953 1.90951
3.9374101 -0.066165097 1.9856
3.8584001 -0.0505867 1.9938
3.7212701 -0.047895499 1.9473701
3.5503299 -0.103345 1.98153
3.1472001 0.0060060802 1.69012
3.80247 -0.046622399 1.92681
3.72806 -0.034042101 2.0367999
3.6451199 -0.0359056 1.88167
3.55089 -0.101457 2.00648
4.0021701 -0.068024598 2.0215499
3.9883499 -0.072208501 1.92197
3.5534599 -0.105021 1.94234
3.7132599 -0.041422602 2.01842
3.7416101 -0.046610799 1.87301
3.84831 -0.049235702 2.03721
3.6141901 -0.0114024 2.0790999
3.85463 -0.057703599 1.9426301
3.62289 -0.124371 1.49101
3.5617099 -0.087568 1.9835401
3.5616801 -0.11298 1.90956
3.9265201 -0.050636798 2.0125501
3.9365399 -0.070770003 1.98602
3.93208 -0.077185102 1.99828
3.9065001 -0.052772202 2.0146301
3.8959701 -0.0590658 1.95086
3.6063099 -0.044893902 1.74919
3.8582799 -0.059386201 1.94168
3.8601899 -0.046361402 2.0062201
3.8699601 -0.057898302 1.92781
3.8310101 -0.047579199 2.03792
3.67801 -0.096936397 1.49651
3.7500801 -0.051608101 2.0835099
3.79759 -0.054544199 2.0344999
3.7820401 -0.0450789 1.88987
3.7979701 -0.0375035 2.0590501
3.8004601 -0.038255598 2.0435801
3.78826 -0.0518553 1.9319
3.7648599 -0.044126902 1.88278
3.77512 -0.048913099 2.0307
3.7184999 -0.036908198 1.97058
3.72069 -0.041064199 1.94753
3.7316699 -0.042952299 2.0947399
3.5775399 -0.111533 1.90405
2.8787401 -0.057681501 1.65686
3.1612301 -0.020810699 1.80486
3.1513801 -0.00250895 1.68957
3.56934 -0.109545 1.91476
3.5762601 -0.102948 1.97097
3.57307 -0.104846 1.87508
3.6466501 -0.0289113 1.94251
3.64873 -0.033762801 1.87971
3.6670201 -0.029624 2.03332
3.6635499 -0.0242672 2.0280001
3.6886599 -0.0374473 2.0699899
3.65907 -0.0374327 1.84834
3.68259 -0.0290401 1.9833
3.6910601 -0.039491501 1.8821599
3.72193 -0.047017299 1.9615901
3.7200899 -0.0424578 1.9908
3.6189499 -0.0128429 2.07762
3.56603 -0.094880298 1.9914
3.57568 -0.10642 1.93872
3.56479 -0.100039 2.00652
2.8993001 -0.077431202 1.66229
3.70452 -0.040492199 1.8592499
3.6958499 -0.040706199 1.85517
3.69379 -0.030700799 1.96979
3.68243 -0.032692999 1.89482
3.68609 -0.029681699 1.9904
3.7207999 -0.041582402 1.98482
3.7028799 -0.034009699 1.88411
3.71912 -0.038477901 2.0283599
3.7202799 -0.041653201 2.0058899
3.6438501 -0.031594899 1.89832
3.68506 -0.035391301 2.0880599
3.69016 -0.038438801 2.0757501
3.6827099 -0.034187999 1.9387701
3.68624 -0.0282347 2.0352199
3.0982499 0.0104052 1.61901
3.1401899 0.0105253 1.77175
3.1543701 0.0063842898 1.6708
3.2567201 0.0115678 1.97755
3.3180301 0.0020330499 2.01811
3.52337 -0.082585797 2.07687
3.56722 -0.113889 1.8959399
3.56586 -0.098384 2.0050499
3.5669 -0.095041297 2.0430601
3.6020401 -0.015249 1.97774
3.58604 -0.108129 1.9234101
3.15398 -0.00343317 1.6677099
3.5657401 -0.0971357 1.98707
3.5623901 -0.101878 1.95068
3.52461 -0.079052001 2.1471601
3.5360899 -0.117365 1.9154201
3.65186 -0.035727002 1.8776
3.6077099 -0.0226865 1.98988
3.63744 -0.0265113 1.96172
2.9482999 0.014342 1.48513
3.10939 -0.0086275898 1.82242
3.0787001 0.0032752999 1.68385
3.1149199 0.000242063 1.65404
3.14873 -0.00554656 1.6892101
3.1859601 -0.027275801 1.48265
3.1963201 -0.028225699 1.53548
3.15452 0.0076048002 1.67252
3.277 -0.0100143 1.7982399
3.27882 -0.0078149699 1.79107
3.5341101 -0.137325 1.91229
3.33006 0.01337 2.0524199
3.3361399 0.0129781 2.0508001
3.50703 -0.105193 1.91838
3.55794 -0.13158 1.86651
3.52196 -0.076034203 2.1433201
3.5142601 -0.078754298 2.01285
3.54234 -0.090562403 2.00055
3.5703199 -0.082454696 2.1449299
3.5792501 -0.105139 1.87471
3.5813501 -0.098548703 1.9437701
3.58145 -0.095773101 1.97988
3.5833299 -0.094634898 2.0117199
3.5848601 -0.093699403 2.0046599
3.57409 -0.113629 1.8562599
3.52952 -0.0781679 2.07777
3.5379801 -0.097780101 1.94414
2.93455 0.00675523 1.50457
3.0815201 0.0100115 1.67003
3.1375101 -0.00920098 1.63315
3.58338 -0.095499597 1.99222
3.5769401 -0.111146 1.84953
3.5781701 -0.109735 1.85044
3.58301 -0.106008 1.89597
3.5866899 -0.104447 1.93076
3.58254 -0.100597 1.9381599
3.5820601 -0.097756602 1.9759001
3.5720699 -0.087514304 2.1496
3.0941999 -0.00664972 1.7910399
3.07813 -0.0137557 1.49608
3.08074 0.0148534 1.7544301
3.1137099 -0.00026224201 1.57912
3.2158 -0.038421001 1.52617
3.1944101 0.019103 1.9975899
3.2118399 0.0102283 1.82137
3.31883 -0.016652601 2.0158401
3.276 -0.0052027898 1.7571599
3.2821 0.0066452799 1.96648
3.31532 -1.19462e-05 2.02846
3.34185 0.00490409 1.9773901
3.3612399 0.0066288002 2.0546801
3.4865201 -0.078517802 2.0235701
3.52496 -0.096926801 2.08043
3.4950299 -0.0749299 2.08623
3.55983 -0.122974 1.8645101
3.5606101 -0.087539703 2.15207
3.5663199 -0.098124899 1.99029
3.5732701 -0.107002 1.93894
3.5374401 -0.098115101 1.9466701
3.3270299 0.0105199 2.05094
3.1945801 -0.0239137 1.5526299
3.2118001 -0.035470098 1.53389
3.1041501 -0.00580562 1.81317
3.07851 0.0059472299 1.6845
3.27828 -0.0076778098 1.7913001
3.14765 -0.0062835701 1.6889
3.1115601 -0.0083461497 1.82998
3.5791099 -0.101487 1.96593
3.5533099 -0.119015 1.9888099
3.55282 -0.114601 1.98568
3.56286 -0.108734 1.88886
3.5631399 -0.102532 1.94152
3.56547 -0.098658897 1.98348
3.56341 -0.094522297 2.0373001
3.5565701 -0.083714098 2.1484799
3.56283 -0.091239698 2.0543301
3.5755401 -0.10566 1.93355
3.0610299 -0.0235685 1.53304
3.0011101 0.0189592 1.4931
3.0533099 0.00716297 1.6231
3.1013601 -0.023000799 1.49841
3.105 -0.021071 1.4974
3.1308401 -0.0073526902 1.89323
3.15362 -0.028094901 1.57839
3.1565499 -0.0085404096 1.68038
3.1354301 0.0063102902 1.7194901
3.1366899 0.0121356 1.76537
3.2024 -0.029511999 1.54207
3.1603701 0.0082053598 1.74816
3.1628499 0.0072378302 1.75746
3.2020099 0.0262051 2.00881
3.22681 0.0256193 2.03932
3.2446101 0.0144124 1.98904
3.2608199 0.0154824 2.0253699
3.26758 0.017729901 2.0311999
3.3475399 -0.029403601 1.84656
3.34253 -0.0194054 1.91203
3.3319499 -0.0024083899 1.97671
3.31918 0.0068966299 1.97744
3.3585601 -0.0164236 1.8529299
3.3582399 -0.0135697 1.90425
2.89768 -0.077128097 1.66276
3.5419199 -0.115087 1.9197299
3.3211999 0.0074927001 2.0171199
3.3192699 0.00518231 2.00458
3.14378 0.0084321899 1.77437
3.07829 0.0052842498 1.6829799
3.1047201 -0.0051712198 1.8171999
3.27601 -0.0077319602 1.78929
4.0527501 -0.077495098 1.95057
4.0499902 -0.073529601 1.98961
4.04813 -0.072411001 2.0014601
4.0167499 -0.068767801 2.0125799
4.0268202 -0.081006803 1.931
4.0448999 -0.068160199 2.07109
3.5705099 -0.13314299 1.93448
3.93729 -0.0645843 1.91334
3.9934299 -0.089926399 2.0209
4.0035701 -0.068599902 2.0270901
3.6094501 -0.0226612 2.0738399
3.85762 -0.046292201 2.0307901
3.8647399 -0.057833601 1.90254
3.91136 -0.062969796 1.91079
3.9280801 -0.057815202 2.0151401
3.8596001 -0.054018602 1.93986
3.84847 -0.055948999 1.90207
3.8596399 -0.0429179 2.0006101
3.5882101 -0.134028 1.74342
3.55178 -0.095810696 2.006
3.5828099 -0.113201 1.83483
3.72874 -0.043841101 1.86926
3.7973001 -0.048691399 2.0338299
3.8004 -0.037859999 2.06371
3.7692101 -0.045229301 1.88543
3.7227001 -0.033323601 2.0318999
3.63588 -0.087442003 1.49261
3.18613 -0.031158101 1.94085
3.1649201 -0.0188831 1.67389
3.6435299 -0.0137995 2.0892501
3.6531601 -0.035430402 1.87139
3.65797 -0.0392575 1.84464
3.7218201 -0.049650501 1.94266
3.7156799 -0.042206001 2.0248001
3.66471 -0.036765601 1.92574
3.7167499 -0.042119101 2.0288899
3.7169299 -0.0390625 2.0243101
3.5801599 -0.104835 1.91687
3.56041 -0.109143 1.86634
3.5255799 -0.077748001 2.0789101
3.3375001 -0.00187666 1.97666
3.3542399 -0.0094195995 1.9010201
2.9944501 -0.0151076 1.4877
3.06549 -0.0502722 1.4840699
3.0464001 -0.020338601 1.5055
3.0978999 -0.028745599 1.49379
3.0522299 0.0056497399 1.61989
3.0975599 -0.0094100405 1.81314
3.10782 -0.0118739 1.82783
3.0824499 0.0031301 1.67005
3.0949099 0.0118088 1.61777
3.1329501 0.0168966 1.7266001
3.20222 -0.0256889 1.92158
3.15712 0.0115384 1.78487
3.17065 0.0087813698 1.79312
3.3236899 -0.0073973001 1.9621201
3.21503 0.0114133 1.82324
3.20209 0.0291526 1.97721
3.2132699 0.030226899 2.0273299
3.24458 0.0170344 1.97867
3.23369 0.026388301 2.06091
3.2548101 0.0149926 2.0183799
3.27917 0.0023713401 1.85314
3.2841499 0.00110649 1.85493
3.2643199 0.018471399 2.02614
3.27054 0.016286099 2.0432899
3.3036301 0.00700302 1.96839
3.3109 0.001179 2.03005
3.3115301 0.0080819502 1.9789799
3.31796 -0.017376799 2.0144401
3.2773199 -0.0078511601 1.77715
3.2364199 0.0091830101 1.98305
3.0754499 0.0078414399 1.68533
3.1256199 -0.00828519 1.87701
2.8948901 -0.079370998 1.66234
3.3640399 -0.0137986 1.88267
3.3055999 0.00760331 2.03371
3.3146999 -0.00063368899 2.0304501
3.32586 0.0108361 1.98724
3.3361299 -0.0027006101 1.97619
3.3484399 -0.0123124 1.82232
3.0794499 -0.0131204 1.49076
3.1114099 -0.0256369 1.4767801
3.1021199 -0.0201975 1.49216
3.10727 -0.020129001 1.49536
3.15874 -0.000263469 1.64195
3.2008801 -0.0127369 1.54588
3.32935 -0.0069542299 1.97489
3.27685 -0.0073959501 1.78936
3.2525301 0.022187 2.0366499
3.3252499 -0.015116 1.9542201
2.8977499 -0.077606201 1.66263
2.9920399 -0.042096902 1.42893
3.0379 -0.0548677 1.4599
3.0213201 -0.0214043 1.49666
3.0557201 -0.0199017 1.5219001
3.0647299 0.0041017099 1.62388
3.0782499 0.00162921 1.67723
3.0736101 0.0136432 1.7231801
3.0754299 0.016514501 1.67934
3.1105399 -0.0085875401 1.8383
3.1457801 -0.00153842 1.69174
3.1345201 0.0081968298 1.73322
3.19753 -0.022853101 1.92295
3.13415 0.0335995 1.92603
3.2279 -0.0215513 1.9315
3.1935899 0.0234368 1.997
3.21505 0.031454101 2.02881
3.2434499 0.0148765 1.9836
3.23277 0.026134601 2.04825
3.2732899 0.00268545 1.85387
3.2440801 0.016736999 1.98639
3.15644 0.0126529 1.78265
3.1369901 0.0117778 1.76712
3.13399 0.0084985504 1.73586
3.07692 0.01126 1.74034
3.2516699 0.0199476 2.0331299
3.0251999 -0.051564701 1.45438
3.05861 -0.0113102 1.54738
3.07723 0.026330199 1.6269701
3.07651 0.031454802 1.60083
3.1373 0.0066009802 1.722
3.1360099 0.0069832201 1.72979
3.20718 0.029324399 2.0181301
3.2358601 0.0104839 1.98105
3.2084301 0.0316674 2.0066299
3.2265899 0.032102101 2.0281301
3.2836299 0.000131767 1.85728
3.2527201 0.0149159 2.00951
2.9638901 0.00729312 1.474
2.9504001 0.014538 1.47299
3.0521901 -0.0078211296 1.61865
3.08146 0.0034137601 1.65917
3.0745599 0.0087971697 1.69488
3.0725801 0.0122913 1.70921
3.08324 0.0111361 1.66374
3.1293001 0.030970899 1.92667
3.1721399 0.0038888201 1.93259
3.1335101 0.033406001 1.9242001
3.12217 0.0017634101 1.95514
3.0757201 0.0058814501 1.67952
3.14853 -0.0097249001 1.93265
2.98296 0.0055825599 1.49001
2.9913399 0.036090001 1.5263799
3.08202 0.000303282 1.67493
3.0834999 0.0022305599 1.6707799
3.13974 0.0152484 1.76765
3.2265899 -0.016785599 1.95711
3.07565 0.0179081 1.6762
2.96241 0.0145398 1.48138
2.9391401 0.0128465 1.44515
2.94433 0.0155812 1.4671201
2.92506 0.034840599 1.49906
3.07445 0.0121804 1.73458
3.0782499 0.0262722 1.72311
3.1127701 -0.00128884 1.83717
3.13079 -0.0061499001 1.88862
3.1505001 -0.015346 1.93713
3.12992 0.036704101 1.92142
3.0823801 -0.00165232 1.78306
3.1754501 0.00228325 1.92632
3.1798999 -0.00156966 1.9225301
3.0740099 0.0117976 1.70755
3.07423 0.013025 1.7210799
3.08957 -0.000126253 1.77325
2.9012401 -0.075590901 1.6590199
3.08673 -0.0061913598 1.79282
3.1481199 -0.00761721 1.93021
3.1189899 0.0078151003 1.94925
3.12392 -0.0064694099 1.87093
3.0886199 -0.00052170898 1.77416
3.0896001 -0.00173444 1.77845
3.1709499 0.0063634701 1.9342099
3.0973799 -0.00186184 1.80291
3.1353099 -0.0047856299 1.90099
3.51419 -0.088493302 2.00738
4.04667 -0.073085599 2.0823901
3.80633 -0.0358501 2.0690401
3.57741 -0.135178 1.6214401
3.9728301 -0.071731299 1.97098
3.9531 -0.066050299 2.0152299
3.74419 -0.044706199 2.0293701
3.9450099 -0.066678703 1.90456
3.9208901 -0.070693098 1.90415
2.9087801 -0.095451698 1.68145
2.82881 -0.069403999 1.67574
2.8724101 -0.0781129 1.64799
2.8826201 -0.084006101 1.65622
2.82234 -0.063338302 1.65433
2.86326 -0.083110601 1.67808
3.08549 -0.047841098 1.53245
3.9999001 -0.065822802 2.02754
4.0047498 -0.071787499 1.9253401
4.0427198 -0.0708813 2.04145
4.04248 -0.069770001 2.02565
4.0453 -0.073626503 1.9732
3.96228 -0.077908903 1.99367
3.99891 -0.079692297 1.99376
3.5597999 -0.100202 2.00737
3.85129 -0.063645303 1.93607
3.9177699 -0.062265199 1.91008
3.71457 -0.037940599 2.0190401
3.71487 -0.0311697 2.0280199
3.7550399 -0.054338999 1.93663
3.56021 -0.108168 1.84663
3.56092 -0.104915 1.98549
3.57195 -0.100553 1.91247
3.5556901 -0.114561 1.8639899
3.6447301 -0.0864022 1.49986
3.7599699 -0.045882501 1.93023
3.78917 -0.0567661 1.9447
3.7946701 -0.049493201 1.9315701
3.7964301 -0.0461489 1.89704
3.54405 -0.093082197 2.04954
3.63293 -0.0188062 2.0000801
3.6587601 -0.039210599 1.85684
3.65992 -0.032268502 1.9381
3.6824601 -0.036212899 2.07741
3.67571 -0.032414801 1.89854
3.6865699 -0.027361499 1.97655
3.6919899 -0.0400047 1.85673
3.7190101 -0.039161999 2.00194
3.72104 -0.046352699 1.94348
3.6500001 -0.027272901 1.94446
3.65205 -0.035398401 1.8766201
3.6435201 -0.0303356 1.89555
3.2944701 -0.032643601 1.7612
3.6136799 -0.0205328 1.97369
3.2743399 -0.0129643 1.80261
3.5740399 -0.115271 1.83448
3.5769899 -0.105583 1.8776799
3.5365901 -0.093718603 2.0028
3.5353899 -0.133588 1.89213
3.53685 -0.092758 1.94411
3.1429901 0.00093392102 1.6853499
3.24666 0.013295 1.95811
2.9168799 0.0149548 1.48693
3.16521 -0.019073101 1.64946
3.08903 0.0141129 1.61344
3.0726399 0.018085999 1.68033
2.94677 0.042178702 1.46178
3.0738101 0.0086406404 1.75283
3.0687301 0.0133406 1.72284
3.54355 -0.110876 1.92737
3.2274301 -0.035207301 1.49911
3.48823 -0.080773897 2.0230401
3.18065 -0.0049486901 1.4691499
3.07445 -0.0311579 1.5050499
3.0611999 -0.0071163098 1.58261
3.1108201 -0.028042899 1.47253
3.28929 -0.0483905 1.86531
3.2507999 0.0239903 2.0352299
3.29807 -0.00304072 2.0308399
3.29548 0.0019574801 2.0343699
3.3288901 -0.0047484199 1.97537
3.34091 -0.0139156 1.92891
3.33586 0.000684197 1.979
3.3208399 0.0058312798 2.0039201
3.3208001 -0.0085221697 1.8224
3.3199 -0.0148365 2.0169799
3.3169501 -0.0181564 2.01578
3.14361 0.000831293 1.69293
3.10674 -0.017814901 1.47779
3.11058 -0.020341299 1.4747
3.1069801 -0.0253212 1.47937
3.31497 0.0091821197 1.97552
3.34922 -0.021386901 1.9124399
3.2750499 -0.0068722302 1.78865
2.92097 0.0109964 1.4924999
3.15187 -0.0025858299 1.66518
3.1698401 -0.000834773 1.8976099
3.1951599 0.0298413 1.97936
3.2356999 0.0136397 1.97799
3.19784 0.029581999 2.0093801
3.0520401 -0.016891399 1.52851
3.1296401 0.0129882 1.7476
3.03532 0.0138448 1.61279
3.0917399 -0.0078929504 1.80013
3.0776801 0.0089204796 1.75457
3.07743 0.0163374 1.7495199
3.0785501 0.015930699 1.75414
3.12533 -0.0082469201 1.88586
