# .PCD v0.7 - Point Cloud Data file format
VERSION 0.7
FIELDS x y z
SIZE 4 4 4
TYPE F F F
COUNT 1 1 1
WIDTH 281
HEIGHT 1
VIEWPOINT 0 0 0 1 0 0 0
POINTS 281
DATA ascii
6.6335602 0.123206 5.1404099
6.6785698 0.078308299 5.1605
6.6789398 0.083196297 5.15487
6.6996799 0.0291449 5.2451601
6.6499701 0.0984006 5.1465502
6.6394901 0.110967 5.1433101
6.6798401 0.031164899 5.2588401
6.6378298 0.111414 5.1466198
6.67944 0.038445801 5.2547898
6.6037698 0.16125201 5.1335301
6.6193299 0.16769899 5.1360102
6.7354999 -0.0178815 5.1615801
6.6524301 0.063625202 5.25985
6.6803002 0.066919401 5.1466999
6.6507802 0.101165 5.1440902
6.6436 0.109407 5.1440601
6.6693301 0.060825199 5.2451501
6.65447 0.054272 5.26262
6.7097402 0.032056101 5.23736
6.6416502 0.127591 5.2394099
6.6324801 0.12025 5.2463698
6.67418 0.072274603 5.1483898
6.6886702 0.025655299 5.2541299
6.6777902 0.040914498 5.2543898
6.6568298 0.0383402 5.2701502
6.6585999 0.0946218 5.2450299
6.6504002 0.085144296 5.2511301
6.6087098 0.173406 5.1396399
6.5876598 0.161438 5.1455798
6.5963402 0.141504 5.1785202
6.5999599 0.172001 5.14644
6.5893102 0.17745399 5.1336999
6.5791702 0.184201 5.1301799
6.6467299 0.041106202 5.2736702
6.6819201 0.0253348 5.2596598
6.5980401 0.14714099 5.2525902
6.6061602 0.135901 5.25383
6.6715498 0.046994898 5.23979
6.6835999 0.060185701 5.2413702
6.6715398 0.077389702 5.2276101
6.6359901 0.138584 5.1466398
6.61449 0.135089 5.1450601
6.6180301 0.146117 5.1610198
6.5952501 0.161735 5.1400199
6.6460299 0.101349 5.25281
6.5760999 0.201314 5.1244102
6.5609198 0.235358 5.0926399
6.6199198 0.13192099 5.2502098
6.6156902 0.14516 5.1547399
6.66084 0.073573597 5.24788
6.6652298 0.083329298 5.1468101
6.6841798 0.049555101 5.2389202
6.67381 0.065356903 5.2322001
6.6237001 0.12881 5.1433101
6.6490102 0.0788268 5.2406502
6.6655598 0.100782 5.23069
6.6556001 0.107869 5.21525
6.6097202 0.17160299 5.1237202
6.6038198 0.173528 5.1280098
6.6372399 0.111578 5.2414098
6.5887699 0.18444499 5.14431
6.5729198 0.17250299 5.1701598
6.5580001 0.194038 5.1405001
6.5566802 0.230791 5.1048598
6.6016698 0.15180101 5.2497902
6.5380702 0.22945499 5.12075
6.6638899 0.086370602 5.1456199
6.6732001 0.0663606 5.2407598
6.6437001 0.1003 5.16605
6.6648698 0.073635198 5.2372899
6.6598001 0.078455798 5.2484899
6.6314502 0.124679 5.1607699
6.6087899 0.153741 5.1365299
6.6413398 0.111917 5.2433
6.58851 0.159545 5.1443901
6.5872998 0.135324 5.1838498
6.5837898 0.158179 5.1474099
6.5767598 0.16083799 5.1746602
6.5701299 0.20581201 5.1257401
6.5611601 0.220231 5.1071301
6.6023798 0.143296 5.2544799
6.59619 0.163478 5.2505898
6.5682602 0.185646 5.2719898
6.6009898 0.14349 5.2602501
6.6033101 0.127491 5.2593002
6.5843401 0.107965 5.1746302
6.6508098 0.086861603 5.2465901
6.6834898 0.0469996 5.2421699
6.6251402 0.155113 5.1271
6.6794701 0.052829701 5.2311902
6.6764898 0.050526801 5.2445502
6.6500702 0.083895497 5.1718898
6.6504402 0.098310098 5.1454701
6.6496 0.10976 5.1409602
6.6637301 0.077541403 5.2348099
6.6392398 0.131917 5.1335902
6.6596999 0.079925001 5.2432599
6.6344099 0.12640201 5.1561098
6.6546602 0.085007302 5.2460299
6.6497402 0.091917403 5.2455702
6.5950599 0.138956 5.1682301
6.6321802 0.110406 5.25425
6.6318998 0.114031 5.24822
6.5936899 0.18082599 5.12849
6.63239 0.14709 5.21875
6.60991 0.13732 5.2567401
6.6015401 0.137509 5.2625399
6.5967102 0.158519 5.2520599
6.5697598 0.193106 5.2724299
6.5789299 0.21395899 5.1182098
6.5782199 0.17993 5.1376801
6.5954199 0.146621 5.2629199
6.56918 0.226786 5.0943799
6.6495099 0.088292301 5.24331
6.61342 0.160161 5.1297402
6.5605402 0.196713 5.2767701
6.6704402 0.0580559 5.2462602
6.6550002 0.079310201 5.2470102
6.62221 0.135699 5.13942
6.5948801 0.150506 5.2609
6.6019402 0.14752901 5.2530198
6.5936499 0.181337 5.1287599
6.5707302 0.187636 5.2705698
6.6341 0.102231 5.2500901
6.6616201 0.065870903 5.2486
6.6261201 0.13901199 5.1531801
6.5546498 0.233317 5.0983901
6.5966902 0.179409 5.12884
6.5956302 0.125027 5.15205
6.6775599 0.079673901 5.1425099
6.6690998 0.105559 5.1352301
6.6459899 0.118108 5.1540699
6.62887 0.13614599 5.13625
6.6167798 0.167162 5.1424899
6.60671 0.140524 5.2521901
6.5788102 0.211796 5.1261802
6.5569401 0.238359 5.0974002
6.5866299 0.185193 5.12918
6.6628699 0.056026001 5.2489901
6.6421199 0.121874 5.1375799
6.6465402 0.086988799 5.24753
6.67169 0.062804401 5.2330298
6.6214499 0.15558501 5.1285901
6.5929799 0.15550099 5.2597799
6.62708 0.117371 5.2495098
6.65627 0.080574699 5.2343798
6.6536598 0.072357699 5.2488499
6.6550398 0.108484 5.1549702
6.6816401 0.077317201 5.1536198
6.6113701 0.164058 5.1272702
6.6292701 0.114372 5.2504201
6.5525899 0.24808399 5.10355
6.56707 0.18411601 5.2663002
6.6735802 0.067792997 5.1491899
6.5665302 0.227483 5.0931001
6.6130099 0.174198 5.14043
6.6539302 0.109218 5.1355
6.6647401 0.075410597 5.2319198
6.68363 0.049763702 5.1531901
6.6241899 0.14339399 5.1346598
6.59339 0.159631 5.2541499
6.6845102 0.0628011 5.1464901
6.6770802 0.094390102 5.1468301
6.6230602 0.141653 5.1314301
6.6382098 0.105631 5.2519302
6.58564 0.19878399 5.1217299
6.6072402 0.174079 5.22686
6.63626 0.112739 5.1587901
6.61585 0.157883 5.1308699
6.5890002 0.19529501 5.1359901
6.6635699 0.108876 5.1371698
6.6245198 0.112716 5.25106
6.64429 0.128627 5.24964
6.6248002 0.136562 5.25529
6.6002798 0.14311901 5.2526999
6.6433501 0.123283 5.14571
6.61696 0.154975 5.1332002
6.5926399 0.18442801 5.1384401
6.6732302 0.087153703 5.1540699
6.66155 0.108715 5.1377101
6.65481 0.118354 5.13518
6.5908699 0.275516 5.1824498
6.6403699 0.13056201 5.13553
6.63099 0.14668299 5.1317601
6.5471702 0.232081 5.1308599
6.65098 0.117096 5.1472402
6.6387901 0.13278399 5.1430101
6.63907 0.173264 5.10393
6.6287098 0.151411 5.1298599
6.5755901 0.16931 5.1649399
6.5527802 0.23019101 5.1235299
6.5606699 0.231435 5.11833
6.5803099 0.211135 5.12185
6.5827398 0.19923501 5.1255202
6.6509399 0.13778199 5.1296701
6.64643 0.116612 5.1374898
6.65622 0.109273 5.1378798
6.5784202 0.200389 5.1264501
6.6472001 0.12596001 5.13451
6.6205502 0.175385 5.11972
6.6111302 0.166769 5.1318002
6.59832 0.17324001 5.1413698
6.5626101 0.22962201 5.1157398
6.5918999 0.186234 5.1384101
6.63692 0.130335 5.13517
6.5988202 0.172316 5.0721302
6.63376 0.131163 5.1363101
6.6206198 0.147356 5.1532502
6.6212301 0.077797897 5.27211
6.65417 0.10001 5.16115
6.6463199 0.118885 5.1534901
6.61163 0.17168701 5.1406102
6.5696402 0.180921 5.1515899
6.67974 0.046963502 5.2449198
6.6029301 0.149859 5.25142
6.5675302 0.18365 5.2679801
6.6514001 0.090467498 5.2449799
6.6660299 0.0604348 5.2446399
6.6543598 0.081624299 5.2371998
6.64149 0.148504 5.2336898
6.6191902 0.12964199 5.2406402
6.6354899 0.097706199 5.2430701
6.5784798 0.145289 5.2719402
6.6345401 0.112489 5.24646
6.57446 0.20175301 5.1277099
6.5661898 0.231344 5.0911398
6.5714598 0.230564 5.0956001
6.5594101 0.237295 5.1001401
6.6568198 0.100168 5.1599798
6.6367602 0.130833 5.1533799
6.6425099 0.097189799 5.2491498
6.5902801 0.152705 5.2645302
6.6403198 0.122644 5.1391301
6.63272 0.109076 5.2493601
6.6242099 0.12783401 5.2540302
6.5982499 0.186609 5.1251702
6.6143298 0.136636 5.24295
6.5892801 0.199304 5.1205602
6.6550899 0.076954402 5.2483602
6.6813202 0.069436498 5.1464
6.6792002 0.087562703 5.1571999
6.6034498 0.175658 5.1300402
6.6831899 0.065749697 5.1480098
6.53264 0.22330099 5.1378198
6.6777601 0.092007302 5.1380401
6.62748 0.118009 5.1721501
6.67767 0.0575011 5.2318001
6.6535602 0.111201 5.1378999
6.6760201 0.056980699 5.1535401
6.62219 0.152031 5.15028
6.64258 0.088353299 5.2421899
6.5988202 0.149156 5.2549
6.5985098 0.15253299 5.2593298
6.6575098 0.0704289 5.2476702
6.6521702 0.085023403 5.2351298
6.6142802 0.133508 5.2532701
6.6757002 0.103066 5.1505599
6.59621 0.184475 5.12814
6.55585 0.240981 5.0995598
6.5441899 0.233328 5.13202
6.5669198 0.23064101 5.1167402
6.5727801 0.21341699 5.1226602
6.5970302 0.18615299 5.1294498
6.6268802 0.107701 5.25038
6.6468501 0.121575 5.24966
6.6417899 0.088348798 5.1168499
6.6283002 0.137409 5.13763
6.6080999 0.13943601 5.2577701
6.6202002 0.14345799 5.13554
6.6072602 0.15998299 5.1304898
6.67066 0.092438199 5.1517501
6.678 0.091709003 5.1382198
6.6838498 0.0548332 5.1500702
6.5887899 0.19226401 5.1243401
6.53792 0.235571 5.13062
6.57339 0.212782 5.12222
6.55899 0.217452 5.1283002
6.6105599 0.16278701 5.1322198
6.6097498 0.14859501 5.15342
6.64993 0.112815 5.13767
6.6071501 0.167064 5.1294899
