# .PCD v0.7 - Point Cloud Data file format
VERSION 0.7
FIELDS x y z
SIZE 4 4 4
TYPE F F F
COUNT 1 1 1
WIDTH 64
HEIGHT 1
VIEWPOINT 0 0 0 1 0 0 0
POINTS 64
DATA ascii
6.1844702 -0.34006 4.7983398
6.1428199 -0.328004 4.7318702
6.1567302 -0.32183999 4.7690802
6.1202402 -0.318661 4.7562199
6.15097 -0.32229099 4.7568002
6.1561899 -0.32187501 4.7557101
6.14924 -0.336128 4.7589402
6.1591702 -0.33726099 4.7603598
6.1494002 -0.32236999 4.7442498
6.12047 -0.32309401 4.7528701
6.1282301 -0.330185 4.7625399
6.1342502 -0.31858501 4.7524099
6.1287799 -0.330623 4.7625999
6.1187801 -0.318198 4.7509098
6.1626201 -0.33349201 4.7655101
6.1552701 -0.333018 4.76478
6.1691599 -0.34001601 4.7601299
6.16713 -0.32293499 4.7502599
6.1346502 -0.320364 4.7505498
6.1556902 -0.33737901 4.7596502
6.1630101 -0.33784401 4.7611399
6.1261702 -0.319426 4.75284
6.1438899 -0.33513701 4.7623701
6.1565099 -0.33674699 4.7581301
6.1647701 -0.32272401 4.7483001
6.1312499 -0.32050899 4.7464199
6.1732402 -0.32213801 4.75032
6.1241498 -0.31969801 4.7530298
6.12077 -0.32084399 4.7515898
6.1451702 -0.33641201 4.7599301
6.1663198 -0.33891401 4.7589102
6.1533098 -0.32263899 4.7446198
6.1477399 -0.32102299 4.7434001
6.1614399 -0.332991 4.7575498
6.1272702 -0.31922299 4.7507901
6.1392298 -0.32014099 4.7501101
6.1599202 -0.33758301 4.7592201
6.1494699 -0.33531699 4.7590199
6.1244798 -0.315047 4.7518101
6.15376 -0.33707601 4.7595301
6.1494699 -0.336207 4.7588902
6.1470199 -0.332587 4.7599001
6.1673698 -0.324523 4.7497602
6.11765 -0.31948799 4.7516899
6.1492901 -0.322157 4.7488499
6.1589198 -0.31935599 4.7522001
6.1303201 -0.31946501 4.74929
6.1177702 -0.32124099 4.7531099
6.1188998 -0.32032201 4.7498298
6.1577401 -0.33659399 4.7610402
6.1715398 -0.324195 4.7497401
6.1461601 -0.319051 4.7487602
6.1178002 -0.31958601 4.7495098
6.1254702 -0.316926 4.7483301
6.1522498 -0.320876 4.74929
6.1497302 -0.32152 4.75141
6.1545901 -0.337302 4.7605
6.1673799 -0.33807501 4.76016
6.1290398 -0.33012399 4.7615199
6.1273899 -0.31745601 4.7505698
6.15907 -0.32404599 4.7483301
6.1402502 -0.322193 4.7479801
6.1424799 -0.32064199 4.7488699
6.12217 -0.31824499 4.7515998
