# .PCD v0.7 - Point Cloud Data file format
VERSION 0.7
FIELDS x y z
SIZE 4 4 4
TYPE F F F
COUNT 1 1 1
WIDTH 68
HEIGHT 1
VIEWPOINT 0 0 0 1 0 0 0
POINTS 68
DATA ascii
7.5541301 0.31123501 5.5054798
7.5742602 0.366014 5.4445801
7.5132198 0.34635499 5.3638701
7.55583 0.29854101 5.5137901
7.58357 0.3495 5.47506
7.5858798 0.314437 5.5081801
7.5697198 0.299597 5.5174398
7.5759301 0.36482599 5.4470201
7.5577202 0.35104099 5.4601102
7.5901899 0.311582 5.5141802
7.5883298 0.333157 5.4923902
7.5573502 0.355389 5.4467101
7.5693998 0.29344001 5.5170498
7.5674901 0.35134301 5.4561601
7.5527701 0.34956601 5.4567599
7.52985 0.340561 5.3716002
7.5680299 0.32975599 5.4874701
7.5657701 0.340523 5.4701099
7.5616798 0.327122 5.4829001
7.5606599 0.353122 5.4542799
7.5626101 0.348001 5.4571199
7.5317302 0.33748201 5.37218
7.5634699 0.34371999 5.4682999
7.55691 0.35358 5.4507399
7.5608101 0.32705101 5.48911
7.5640702 0.32973701 5.47824
7.53374 0.33596501 5.3776202
7.5671902 0.320887 5.4917102
7.56951 0.29589301 5.5152898
7.55443 0.29564899 5.4430699
7.5335302 0.34132299 5.3683
7.55967 0.35053101 5.4580998
7.5669599 0.302892 5.50702
7.5391502 0.33539501 5.3800302
7.5162401 0.333671 5.3537202
7.5468001 0.334892 5.3845601
7.5345802 0.33213499 5.3857598
7.5454798 0.296316 5.43466
7.5431299 0.300466 5.4283299
7.5265498 0.33022699 5.3830299
7.5686698 0.28832999 5.51789
7.5724401 0.33072099 5.48106
7.5660801 0.358417 5.4454799
7.5695701 0.341279 5.4771299
7.56989 0.29812601 5.51159
7.5711098 0.32767999 5.4874701
7.5603099 0.34042799 5.4658699
7.5429702 0.29040501 5.4401999
7.56253 0.32903701 5.47894
7.5683298 0.29563299 5.5129399
7.53198 0.30947199 5.41682
7.5310402 0.333579 5.3828602
7.5668602 0.301393 5.5068498
7.56353 0.34970999 5.4559002
7.5690098 0.33490199 5.4738898
7.4745698 0.318802 5.3695102
7.5696802 0.32833701 5.4824901
7.5617399 0.34172601 5.4647598
7.5667801 0.31425801 5.50595
7.5318699 0.34154701 5.3680801
7.5415502 0.33563799 5.3859501
7.5546598 0.37529701 5.42065
7.5545301 0.275038 5.4654999
7.5569501 0.35344601 5.4558101
7.5588598 0.35136199 5.4537501
7.5701799 0.336328 5.4752598
7.5668898 0.358428 5.4488902
7.5717902 0.41099101 5.39856
