# .PCD v0.7 - Point Cloud Data file format
VERSION 0.7
FIELDS x y z
SIZE 4 4 4
TYPE F F F
COUNT 1 1 1
WIDTH 75
HEIGHT 1
VIEWPOINT 0 0 0 1 0 0 0
POINTS 75
DATA ascii
-2.3269501 -1.2022001 -0.44299099
-2.39661 -1.1368901 -0.362151
-2.3531799 -1.14298 -0.36122501
-2.40994 -1.21471 -0.466059
-2.49365 -1.18835 -0.46137199
-2.3841701 -1.19666 -0.46350101
-2.4302001 -1.19612 -0.434443
-2.3750899 -1.1690201 -0.391213
-2.4685199 -1.13529 -0.36090299
-2.4919 -1.13341 -0.368397
-2.43857 -1.1521 -0.384289
-2.49773 -1.14615 -0.39263901
-2.34589 -1.15573 -0.378654
-2.4958 -1.1489 -0.40393499
-2.3756299 -1.15917 -0.377689
-2.4954901 -1.1527801 -0.39111599
-2.45274 -1.1570801 -0.39988199
-2.48862 -1.16256 -0.39423901
-2.4092 -1.15451 -0.380348
-2.4307499 -1.16308 -0.37776899
-2.38292 -1.17624 -0.39545301
-2.5093701 -1.16522 -0.39623001
-2.19333 -1.21102 -0.39511999
-2.42114 -1.16828 -0.40564799
-2.52298 -1.16248 -0.40291801
-2.54408 -1.15292 -0.40451699
-2.4537799 -1.15999 -0.39453799
-2.3533199 -1.18093 -0.39667401
-2.3424499 -1.18874 -0.39784101
-2.3570299 -1.18137 -0.39457801
-2.4769399 -1.16043 -0.391386
-2.4976799 -1.17054 -0.404466
-2.3353 -1.19473 -0.39370799
-2.2783 -1.20829 -0.41371799
-2.36959 -1.18576 -0.39475501
-2.35355 -1.18929 -0.39236599
-2.2762799 -1.21481 -0.41413701
-2.33303 -1.1893899 -0.39117801
-2.4501901 -1.16517 -0.388372
-2.4928601 -1.17001 -0.399257
-2.36216 -1.18689 -0.399883
-2.49384 -1.16899 -0.40632501
-2.4925201 -1.16391 -0.412148
-2.6656001 -1.16747 -0.35421801
-2.27774 -1.20394 -0.41676599
-2.3431599 -1.18635 -0.393379
-2.40362 -1.1772701 -0.39541101
-2.4848599 -1.17694 -0.41212699
-2.2920301 -1.2123801 -0.41893199
-2.3421099 -1.18925 -0.38812801
-2.37497 -1.1861 -0.396483
-2.4728501 -1.1733201 -0.405507
-2.19432 -1.20511 -0.39673999
-2.3315301 -1.18559 -0.38925999
-2.3924401 -1.1863 -0.40524599
-2.47246 -1.17594 -0.407345
-2.4244399 -1.14987 -0.36412999
-2.41013 -1.18362 -0.41404
-2.32564 -1.17988 -0.389314
-2.2720001 -1.20437 -0.41475099
-2.4224801 -1.17238 -0.40083799
-2.3505199 -1.18177 -0.391498
-2.5053101 -1.15982 -0.40673
-2.3556499 -1.17662 -0.39240801
-2.4020901 -1.16953 -0.39448801
-2.4279799 -1.17948 -0.407516
-2.4566901 -1.17635 -0.40591201
-2.3464701 -1.18381 -0.40413001
-2.4768701 -1.17184 -0.40101701
-2.4420099 -1.16828 -0.40624401
-2.28053 -1.20978 -0.41665
-2.4999101 -1.1578799 -0.417768
-2.3467901 -1.18393 -0.392104
-2.3926499 -1.181 -0.400327
-2.4886301 -1.16784 -0.40689901
