# .PCD v0.7 - Point Cloud Data file format
VERSION 0.7
FIELDS x y z
SIZE 4 4 4
TYPE F F F
COUNT 1 1 1
WIDTH 92
HEIGHT 1
VIEWPOINT 0 0 0 1 0 0 0
POINTS 92
DATA ascii
7.29848 0.055320598 5.1534801
7.2983499 0.063465901 5.1539602
7.3042698 0.0879879 5.1386499
7.3115501 0.121115 5.1296
7.2985601 0.0484767 5.1579099
7.3116102 0.15002 5.1304402
7.2953801 0.083998099 5.1431499
7.31463 0.14220899 5.1257
7.3238902 0.184201 5.09797
7.2966499 0.045516498 5.1578798
7.2712402 0.044363301 5.1538601
7.2790799 0.0700657 5.1429901
7.3165798 0.157947 5.1245298
7.2916298 0.0377982 5.1633601
7.2947898 0.082424998 5.1421499
7.2909999 0.071389101 5.1478701
7.2755098 0.0245832 5.1631799
7.2901902 0.044920299 5.1584802
7.2884202 0.057810601 5.1540098
7.30616 0.11958 5.1276202
7.3264999 0.170292 5.1193099
7.30902 0.17810801 5.1045499
7.2946601 0.078708 5.1435599
7.27036 0.0449696 5.1522498
7.2908201 0.071090497 5.1451201
7.2969398 0.095100202 5.1360502
7.3242102 0.167428 5.1212702
7.28337 0.062787399 5.1447802
7.2881799 0.064177401 5.15276
7.2894902 0.052281901 5.15626
7.3106699 0.13045 5.1279702
7.2733402 0.067669399 5.1421099
7.2907801 0.069826603 5.1497502
7.27035 0.020563999 5.16822
7.2908401 0.074881099 5.1465602
7.30513 0.116825 5.1293898
7.3222198 0.165034 5.1199002
7.3078198 0.18698899 5.1087499
7.3138099 0.149648 5.1203198
7.2716799 0.051959898 5.1545701
7.2945199 0.085675299 5.1393099
7.2623801 0.020661401 5.1697001
7.28615 0.120301 5.1154399
7.3027101 0.114023 5.1282201
7.28792 0.070043102 5.1464801
7.2850199 0.061732899 5.1532698
7.2694201 0.094949998 5.1377101
7.2867398 0.073021598 5.1466899
7.26684 0.0085262898 5.1768198
7.25349 0.030652899 5.17625
7.2733698 0.066227198 5.1536798
7.2676601 0.089677297 5.1315098
7.2968998 0.103514 5.13167
7.2814898 0.0486219 5.1557498
7.26718 0.060399201 5.1471801
7.3022399 0.116888 5.1278
7.3049502 0.127353 5.1243801
7.3168302 0.16192999 5.1168499
7.2806802 0.049550999 5.1550102
7.2920899 0.086619698 5.1377201
7.2978802 0.105638 5.12888
7.3150001 0.16029599 5.1184902
7.2765098 0.0173856 5.16784
7.30164 0.114415 5.1265802
7.3056798 0.12961 5.1238699
7.3084402 0.140892 5.1205301
7.2917099 0.083044603 5.1392899
7.2793999 0.036527801 5.1633101
7.32407 0.17625301 5.11447
7.2907 0.082389101 5.1401601
7.3074198 0.134881 5.1243
7.2881598 0.077338703 5.1410298
7.3008299 0.179765 5.1075201
7.2727098 0.118801 5.1435399
7.3200202 0.165061 5.1180601
7.3101301 0.17879599 5.1043901
7.31633 0.145532 5.1226001
7.3146501 0.158724 5.11833
7.3007002 0.096309699 5.1357598
7.2875099 0.047317501 5.15516
7.2873302 0.052623998 5.1614399
7.2730198 0.065271199 5.14819
7.26759 0.070009403 5.1417398
7.3045602 0.107715 5.1322098
7.31388 0.143261 5.12569
7.3102102 0.178258 5.1097398
7.3095498 0.134423 5.1241899
7.2726998 0.065534897 5.1454401
7.2691302 0.0564931 5.1476998
7.2976699 0.094442204 5.1381698
7.30619 0.130229 5.1226602
7.2735 0.110107 5.1311998
