# .PCD v0.7 - Point Cloud Data file format
VERSION 0.7
FIELDS x y z
SIZE 4 4 4
TYPE F F F
COUNT 1 1 1
WIDTH 79
HEIGHT 1
VIEWPOINT 0 0 0 1 0 0 0
POINTS 79
DATA ascii
3.0341101 0.65457898 8.2265797
2.9075799 0.64865398 8.4252596
2.9182601 0.64178199 8.4451904
3.03896 0.62385702 8.2421703
3.05708 0.60441202 8.26443
3.02073 0.60471803 8.2630701
3.0169101 0.63459599 8.2248297
3.03651 0.607274 8.26649
3.0687201 0.63178802 8.2044497
3.0208099 0.63629597 8.2286301
3.01829 0.60775203 8.2594604
3.03016 0.64124203 8.2392101
3.07355 0.64040601 8.20858
3.0139599 0.63604301 8.2101002
3.0452199 0.60974699 8.2249603
3.0277801 0.608778 8.2684298
3.04373 0.621539 8.2410202
3.0908799 0.60528499 8.2565203
3.02087 0.64264399 8.2367897
3.05198 0.60313803 8.2634602
3.1029899 0.621683 8.22328
3.09589 0.63764501 8.2037296
2.91453 0.64858103 8.4436703
3.0288401 0.63244897 8.2069702
3.0719099 0.647044 8.2115698
3.07831 0.57432801 8.27038
2.9669199 0.655689 8.38797
2.8782201 0.66879201 8.4032402
3.06741 0.59596401 8.2678804
3.0283101 0.63455999 8.2066603
3.0098801 0.630665 8.2096796
2.91324 0.64138001 8.4422503
3.0085599 0.64117998 8.2176504
3.0313101 0.63837898 8.2146196
3.0394199 0.59831202 8.2617102
2.9177201 0.644485 8.4490499
3.0687699 0.597974 8.2509899
2.89205 0.663288 8.4023199
3.0385499 0.57863599 8.2462101
3.0115399 0.60330898 8.2678204
2.97613 0.60968697 8.2534304
2.9147601 0.64128 8.4393301
3.01402 0.59553301 8.2754498
3.02317 0.63909203 8.2381496
3.03827 0.62292099 8.24368
3.0857401 0.57900798 8.2850304
3.0920601 0.59622002 8.2251997
3.10009 0.59410602 8.2075996
3.07477 0.56674898 8.2839699
3.04582 0.61270499 8.2223301
3.09816 0.59085399 8.22087
3.10058 0.56573302 8.2427502
3.0237899 0.610026 8.2660198
3.0143399 0.611063 8.2603502
3.02702 0.60134798 8.2496901
3.10413 0.59306198 8.25068
3.2370501 0.57711899 8.2702103
3.08252 0.59766102 8.2460403
3.0709 0.60913903 8.22791
3.0809901 0.59536499 8.2723303
3.08757 0.60307598 8.2218704
3.0537601 0.59763598 8.2452698
3.0553401 0.60001898 8.2497902
3.0886199 0.59754199 8.2471905
3.0843101 0.56882602 8.2847404
3.10023 0.61045802 8.2156296
3.1064899 0.61641198 8.1967201
3.0407701 0.60199201 8.2733297
3.10636 0.63305598 8.2019196
3.0857699 0.62179399 8.2185001
3.1032801 0.62112099 8.2047005
3.0515001 0.64390701 8.2135096
3.0799301 0.574018 8.28508
3.0810201 0.60564202 8.2487001
3.2390699 0.58136499 8.2864904
3.0664401 0.59133899 8.2795601
3.0502701 0.60389298 8.2589102
3.0834899 0.60073298 8.2483301
3.18013 0.60380399 8.2847099
