# .PCD v0.7 - Point Cloud Data file format
VERSION 0.7
FIELDS x y z
SIZE 4 4 4
TYPE F F F
COUNT 1 1 1
WIDTH 1015
HEIGHT 1
VIEWPOINT 0 0 0 1 0 0 0
POINTS 1015
DATA ascii
2.7000999 -0.86197799 2.77776
2.65676 -0.862445 2.74281
2.6651299 -0.803711 2.7338901
2.66979 -0.62431002 2.7576499
2.7024 -0.55150598 2.74457
2.69823 -0.52546197 2.7441101
2.7323101 -0.383302 2.6877
2.7209301 -0.360457 2.72574
2.76331 0.074048303 2.6856999
2.78758 0.110024 2.6872101
2.8013301 0.121295 2.6777401
2.8017499 0.277944 2.6674199
2.6482899 -0.82672101 2.78074
2.6549201 -0.77470601 2.7679801
2.66675 -0.70984697 2.7634201
2.6774399 -0.608262 2.7497301
2.69663 -0.59251797 2.71227
2.7086999 -0.40412 2.7276299
2.7128601 -0.37997001 2.7272401
2.7257099 -0.341699 2.7233701
2.72598 -0.34697801 2.6859701
2.75983 0.0167582 2.69029
2.7616401 0.055831499 2.6862199
2.8041201 0.13298699 2.68769
2.79198 0.197741 2.6726699
2.78894 0.30144501 2.66383
2.7706699 0.28322801 2.6704299
2.6331301 -0.77126199 2.7724099
2.7969999 0.48197499 2.65222
2.7731299 0.14907099 2.6839099
2.7869501 0.173034 2.63712
2.77267 0.202694 2.6763999
2.7818501 0.27164701 2.67103
2.7781701 0.47872001 2.65082
2.6881101 -0.52310503 2.7474101
2.8211 0.61055398 2.64241
2.7786 0.0622667 2.68928
2.7776899 0.164215 2.6784201
2.76917 0.27057099 2.67559
2.7053599 -0.53790098 2.7522399
2.75102 0.0547993 2.66155
2.7490699 0.033253301 2.6926799
2.7795801 0.108654 2.68594
2.7973399 0.48925701 2.6516099
2.7676001 0.214017 2.6770799
2.70015 -0.60328603 2.7162399
2.7247801 -0.28596601 2.6854801
2.7751701 0.091060102 2.6916599
2.65345 -0.86064202 2.74525
2.70506 -0.539379 2.75104
2.7053499 -0.28137699 2.69574
2.8158801 0.487385 2.6175399
2.7262599 0.39201799 2.6749499
2.7084601 -0.46131399 2.7090001
2.6498101 -0.714522 2.7390101
2.6439099 -0.68879598 2.77265
2.6714301 -0.50762802 2.71628
2.76861 0.090897799 2.65575
2.7857299 0.16677 2.6390901
2.6475101 -0.67944503 2.7704599
2.6639099 -0.61081201 2.7272699
2.6243601 -0.78258699 2.7927401
2.6698999 -0.54404598 2.72155
2.72857 -0.238002 2.68223
2.8144801 0.50397903 2.61517
2.6503699 -0.70252502 2.7360599
2.68594 -0.536313 2.7214799
2.8129399 0.621149 2.64221
2.6609399 -0.65693599 2.7298601
2.7883601 0.47103301 2.6574399
2.6391599 -0.77113903 2.7810199
2.6547599 -0.72238803 2.76879
2.7065599 -0.32892501 2.6987801
2.7506599 0.052210499 2.6979799
2.6614599 -0.84326899 2.7752299
2.6655099 -0.65025902 2.7604799
2.69908 -0.59516698 2.7195799
2.6806099 -0.578839 2.75841
2.7351999 -0.27302399 2.6844599
2.65886 -0.71224201 2.7668099
2.7915599 0.44331601 2.65868
2.81604 0.50455397 2.6091299
2.7704799 0.22967599 2.6753399
2.6549201 -0.76460803 2.74176
2.7430401 -0.20915499 2.67941
2.8022299 0.449047 2.65606
2.80814 0.51861501 2.6519001
2.8258801 0.60938603 2.6417501
2.6609199 -0.81884098 2.7414601
2.6740501 -0.71533501 2.73101
2.6590199 -0.67475599 2.73508
2.7019801 -0.53885102 2.75354
2.64094 -0.83546901 2.7771499
2.6472099 -0.79596198 2.77613
2.7612801 0.21026 2.6797099
2.6709099 -0.633138 2.7258401
2.7551799 0.046306599 2.69396
2.6628201 -0.72020298 2.72946
2.80056 0.47799 2.65221
2.64626 -0.86346799 2.7471499
2.7323899 -0.16850001 2.6790299
2.7739699 0.218596 2.64186
2.65991 -0.74775302 2.73634
2.6656699 -0.62388498 2.76721
2.6967101 -0.57655603 2.71615
2.7324901 -0.35785699 2.73595
2.7698801 0.26362601 2.68016
2.7328999 -0.30552801 2.68506
2.7560201 0.043298502 2.7069199
2.6612101 -0.72184998 2.7723
2.6521101 -0.86220998 2.7542701
2.6990399 -0.59055299 2.7211399
2.7279699 -0.39320201 2.6997199
2.7270801 -0.275859 2.6875601
2.7397699 -0.21377601 2.7188001
2.74404 -0.0590651 2.70772
2.7648201 -0.0108725 2.70331
2.7723601 0.0356225 2.65623
2.7832201 0.25682801 2.6422801
2.7564099 -0.46449301 2.7347
2.81534 0.49783799 2.6154399
2.80125 0.51191097 2.65835
2.78128 0.27402201 2.6759501
2.7861199 0.193602 2.64235
2.77825 0.16684499 2.64698
2.6105599 -0.65113598 2.7408299
2.6979001 -0.52649301 2.7588601
2.7328501 -0.37931299 2.69715
2.7296901 -0.362672 2.69611
2.7555001 -0.31646699 2.6852901
2.7588201 0.052008402 2.6993599
2.7671101 0.078479297 2.6569099
2.7850101 0.233661 2.64165
2.79526 0.27314901 2.63501
2.7999599 0.44384301 2.6587501
2.7361701 -0.461279 2.7423
2.6879799 -0.52705199 2.7176099
2.8236301 0.61535698 2.6453099
2.71823 -0.59831899 2.7128601
2.70841 -0.532354 2.70889
2.7226501 -0.46966499 2.7049
2.7644801 -0.23281799 2.66817
2.7578199 0.074373201 2.66134
2.76107 -0.040289201 2.70151
2.7641799 0.098292999 2.6575899
2.6994901 -0.62510598 2.72473
2.6866601 -0.55879802 2.7214799
2.70929 -0.51105398 2.7118299
2.7581699 0.040276598 2.7000301
2.7676499 0.110544 2.6911399
2.7681601 -0.152924 2.6949
2.7732 0.168669 2.64891
2.6588199 -0.703264 2.7413599
2.78369 0.195283 2.6439199
2.7862699 0.29300699 2.6747
2.71908 -0.50627202 2.7040401
2.67102 -0.83049202 2.7418799
2.6728499 -0.824624 2.74593
2.6694701 -0.78176302 2.7437201
2.70595 -0.459232 2.7077
2.7170501 -0.50321299 2.70823
2.7095799 -0.395033 2.7023499
2.77915 0.15556601 2.6475599
2.72733 -0.31737199 2.69279
2.72616 -0.26265201 2.6892099
2.7618001 -0.0175623 2.6637399
2.7676599 0.040222801 2.65832
2.7771399 0.12132 2.65043
2.7711501 0.16719399 2.6870501
2.7844601 0.20321099 2.6429801
2.7923501 0.239126 2.6386299
2.7784801 0.24954499 2.6795499
2.7933199 0.39378801 2.6754501
2.7978599 0.48822501 2.66787
2.7363 -0.164487 2.6848099
2.74242 -0.166339 2.6786799
2.7383499 -0.234965 2.6844499
2.8095 0.48695999 2.61724
2.8045101 0.467067 2.65798
2.7980299 0.42578101 2.6624801
2.7950101 0.376726 2.6666
2.67939 -0.65802801 2.7278199
2.698 -0.364301 2.7028699
2.6991899 -0.59200799 2.7186
2.7627699 0.0499615 2.6972001
2.6823599 -0.793733 2.73668
2.6717801 -0.72802103 2.7344999
2.8236899 0.61887699 2.64094
2.6712699 -0.80686897 2.7369299
2.6469901 -0.86137301 2.74471
2.6749499 -0.65727901 2.7725501
2.6834099 -0.65239698 2.7257299
2.6991401 -0.483354 2.7109699
2.7262199 -0.331682 2.6900101
2.71469 -0.40384501 2.6993799
2.72016 -0.34535101 2.69396
2.67696 -0.71119303 2.73137
2.7360499 -0.153677 2.6819301
2.7609601 -0.0112617 2.69925
2.76298 0.0626688 2.6552501
2.7607999 0.13272101 2.6566701
2.7797599 0.19181199 2.64061
2.76528 0.204955 2.6780901
2.6889601 -0.54118103 2.7539699
2.65081 -0.86786199 2.7453799
2.8060601 0.52319598 2.65695
2.8139901 0.53024101 2.6522901
2.6646299 -0.71194202 2.77443
2.73122 -0.23207501 2.68536
2.66781 -0.81474 2.7619901
2.67134 -0.78002501 2.7592299
2.6787701 -0.75506902 2.7350099
2.7019999 -0.51941901 2.74981
2.8099101 0.461611 2.6201999
2.7093799 -0.46269 2.7074101
2.71418 -0.381493 2.69765
2.72417 -0.295706 2.69471
2.7310801 -0.27942401 2.6921101
2.7604899 -0.125652 2.6928201
2.7609999 -0.056070901 2.7012899
2.71999 -0.33445501 2.69367
2.80234 0.436627 2.66032
2.7801099 0.179051 2.64693
2.78403 0.225549 2.64344
2.78267 0.26217201 2.6417699
2.7920401 0.28324601 2.6711099
2.7808599 0.25522599 2.6797099
2.7767799 0.222128 2.68255
2.67468 -0.789837 2.7379
2.68121 -0.65753901 2.7669301
2.7114301 -0.47974199 2.7078199
2.7722399 0.0378142 2.6565399
2.8011899 0.39705801 2.6626999
2.76617 -0.087888002 2.70558
2.7583201 0.0062520802 2.70292
2.77918 0.135343 2.6495399
2.7000699 -0.52719802 2.7132101
2.6953001 -0.558245 2.75369
2.80198 0.44419 2.66188
2.67045 -0.83534902 2.7621601
2.66892 -0.80763203 2.7432401
2.67152 -0.77858502 2.7567101
2.6749401 -0.76231498 2.75529
2.68525 -0.666816 2.7646899
2.6840701 -0.65178102 2.7646999
2.68501 -0.60583597 2.7595899
2.70101 -0.49500799 2.71105
2.7121999 -0.46737701 2.7072899
2.7128999 -0.43252799 2.7061501
2.7258401 -0.39064401 2.69415
2.7309599 -0.317191 2.6944499
2.73102 -0.28225899 2.68976
2.73401 -0.23189799 2.68385
2.7316899 -0.20628899 2.72456
2.7299399 -0.36361501 2.6960101
2.74596 -0.151971 2.67851
2.7567999 -0.0718849 2.70646
2.7538099 -0.14571901 2.6982801
2.76298 -0.0232275 2.6814899
2.76281 -0.0031691401 2.6993101
2.74526 -0.099534802 2.71051
2.76737 0.0343359 2.6603501
2.77601 0.158278 2.6508999
2.7858 0.17250399 2.6443999
2.78302 0.23499 2.64323
2.7834001 0.26635 2.6791
2.6997299 -0.54515898 2.7165
2.7950599 0.26315999 2.6358099
2.6972201 -0.55027699 2.7544999
2.8017199 0.41970101 2.6626101
2.7830801 0.058427799 2.69192
2.7837701 0.20202 2.6440201
2.67098 -0.81450897 2.7428501
2.6825199 -0.73916399 2.7338901
2.7318201 -0.30189699 2.6901
2.72767 -0.33259699 2.69204
2.7215099 -0.38426301 2.7357099
2.74966 -0.148559 2.6958399
2.77811 0.192854 2.6825199
2.7748001 0.058634501 2.65412
2.7365601 -0.23377401 2.68485
2.72716 -0.38089699 2.6959
2.67031 -0.80397201 2.7406199
2.6702001 -0.80172998 2.7605901
2.67366 -0.79277498 2.76599
2.67467 -0.75203598 2.7553699
2.6923299 -0.65901899 2.72575
2.6855199 -0.61935902 2.76057
2.69591 -0.609837 2.72083
2.69839 -0.59194303 2.7198901
2.68871 -0.58377701 2.7592101
2.7025101 -0.51656598 2.7376399
2.70561 -0.50577098 2.7365601
2.7175 -0.43328401 2.70257
2.73577 -0.28674999 2.6890299
2.7234199 -0.380622 2.7002499
2.72349 -0.35241601 2.6998799
2.72805 -0.345797 2.69522
2.72737 -0.32049599 2.71154
2.7368901 -0.20887899 2.6844399
2.74581 -0.15037499 2.6779399
2.7562499 -0.12506901 2.6942699
2.7723801 -0.095496804 2.7114699
2.7528701 -0.0737608 2.67173
2.7585599 -0.054660998 2.68628
2.7592199 -0.0222895 2.6693299
2.76245 -0.0093766898 2.6715701
2.7702701 0.104868 2.6907699
2.78021 0.14814501 2.64837
2.7793801 0.18148699 2.6480999
2.77526 0.185569 2.6851299
2.7799201 0.24751 2.6436999
2.7887399 0.289078 2.6375899
2.793 0.29757899 2.6689601
2.7589099 -0.0193497 2.7020299
2.7834499 0.25317201 2.6787
2.7794299 0.215592 2.6835599
2.7773399 0.16238201 2.6847899
2.7729101 0.116009 2.65398
2.7616501 0.051478799 2.69718
2.6803501 -0.75225002 2.73368
2.6958499 -0.55842298 2.75333
2.79142 0.166521 2.64201
2.7084799 -0.47211099 2.70893
2.76775 0.038894098 2.6596799
2.6707399 -0.82605201 2.74265
2.66922 -0.81858498 2.76195
2.6766801 -0.76604199 2.7380199
2.6809499 -0.73895502 2.7337101
2.6863699 -0.67436999 2.7541499
2.6840601 -0.64208698 2.76455
2.7012701 -0.58235002 2.71896
2.7044599 -0.55606902 2.71503
2.7013299 -0.52567703 2.7502601
2.7034199 -0.50593501 2.7497101
2.7093899 -0.47338399 2.73563
2.71332 -0.46116999 2.70667
2.7195499 -0.41213 2.7019601
2.72858 -0.33366701 2.7181001
2.73382 -0.31493101 2.69207
2.7406099 -0.247153 2.6842599
2.7042401 -0.55270702 2.71821
2.7428999 -0.152226 2.7147501
2.74962 -0.14708699 2.6759701
2.75337 -0.0889512 2.69048
2.7539001 -0.0429985 2.7058599
2.75898 -0.0279002 2.68607
2.7651701 -0.0133694 2.6660199
2.7674 0.0056935898 2.66242
2.7560899 0.0129054 2.7055299
2.7769799 0.081066102 2.65397
2.78091 0.12914699 2.6500001
2.78916 0.21828 2.6419699
2.7862999 0.23745 2.64271
2.7571199 -0.050436899 2.6865001
2.79159 0.25395301 2.63836
2.78862 0.28026199 2.6391201
2.7890401 0.28686601 2.67573
2.7885301 0.26687199 2.6757801
2.7804799 0.20135701 2.6839099
2.74628 -0.16933601 2.6798999
2.7700901 0.042858399 2.6952901
2.75754 -0.0245582 2.7048399
2.6900401 -0.59546697 2.7597699
2.6928699 -0.569103 2.7559199
2.70666 -0.54276699 2.7144301
2.70786 -0.50625098 2.7297299
2.7123499 -0.49698499 2.7067699
2.7530701 -0.085521802 2.6905799
2.7130799 -0.47094899 2.7066901
2.69976 -0.59235299 2.7193699
2.7960401 0.28457299 2.6342399
2.7829299 0.25069001 2.6803801
2.7430401 -0.211468 2.6837201
2.7843101 0.177615 2.6461699
2.7781601 0.165819 2.6844201
2.7267799 -0.36662799 2.69696
2.72593 -0.37964201 2.69715
2.7715499 0.0337715 2.65833
2.75301 -0.10247 2.7088101
2.68155 -0.78304899 2.7558701
2.7341399 -0.31029999 2.68922
2.7340901 -0.328183 2.6892099
2.6773901 -0.769804 2.76317
2.67957 -0.75713301 2.76243
2.6840401 -0.72331601 2.7581401
2.6861401 -0.69047898 2.75474
2.6965001 -0.63610399 2.7258601
2.7002499 -0.59547597 2.7444799
2.69417 -0.57551497 2.7581201
2.70152 -0.56295198 2.74139
2.7032299 -0.56117201 2.71538
2.70717 -0.53968698 2.71415
2.70714 -0.529414 2.7395401
2.7003901 -0.52400798 2.7533
2.71138 -0.50364 2.7100599
2.71065 -0.48768201 2.7356999
2.7263899 -0.36341 2.69716
2.7216699 -0.362295 2.73522
2.7915499 0.27533701 2.67255
2.73364 -0.31915501 2.6921699
2.7370801 -0.283746 2.68837
2.7367101 -0.27768201 2.6912899
2.73909 -0.266092 2.6877699
2.7405901 -0.242273 2.7096701
2.7428601 -0.236834 2.6838701
2.7304001 -0.345691 2.69593
2.74315 -0.161695 2.6979301
2.6920099 -0.59677899 2.7588
2.7523701 -0.1401 2.67554
2.7497301 -0.115322 2.69315
2.7506599 -0.10354 2.6928799
2.75824 -0.090825103 2.6710501
2.7556901 -0.063514397 2.70803
2.75878 -0.039858401 2.6821001
2.7600999 -0.0137964 2.70119
2.76894 0.0074830698 2.66242
2.7741899 0.044241101 2.65815
2.75581 -0.0538367 2.6857901
2.7700701 0.0754105 2.6926601
2.7781999 0.174514 2.6847899
2.78461 0.23137499 2.68013
2.7917199 0.25657299 2.6393199
2.7848401 0.259045 2.68012
2.7939401 0.236145 2.6387501
2.7850299 0.234115 2.6800001
2.7897899 0.214711 2.6426599
2.7887499 0.19707 2.6429601
2.78111 0.193859 2.6839099
2.7862501 0.152761 2.64644
2.7188799 -0.44369701 2.7049799
2.7781799 0.096804596 2.6542499
2.7767601 0.070099503 2.6574199
2.7652199 0.0506429 2.6969399
2.6803601 -0.75058502 2.7337501
2.6920099 -0.676691 2.75265
2.7006199 -0.58820403 2.7189901
2.7018199 -0.58627599 2.7439599
2.6960101 -0.56045598 2.75471
2.7541299 -0.096159801 2.71119
2.74438 -0.18026 2.71696
2.71086 -0.50243199 2.7355499
2.7488 -0.13644999 2.7128501
2.7437899 -0.158857 2.6977301
2.7827301 0.121445 2.6501999
2.73878 -0.22395299 2.71035
2.7599699 0.0075725098 2.7013099
2.7156999 -0.45878601 2.70596
2.7135701 -0.47087201 2.70662
2.7544301 -0.041747399 2.70854
2.6770799 -0.769503 2.7385099
2.6838801 -0.76056403 2.75985
2.68262 -0.75475299 2.73436
2.6831999 -0.744142 2.7583301
2.6846299 -0.73122901 2.7581601
2.7923701 0.288165 2.63783
2.78966 0.282801 2.67645
2.7894101 0.27704999 2.6763999
2.7848301 0.248146 2.67976
2.7925301 0.27895501 2.63763
2.74014 -0.26814499 2.68764
2.7435999 -0.23923901 2.68471
2.7441499 -0.236653 2.6845801
2.68712 -0.69843102 2.7558401
2.6919401 -0.662108 2.75264
2.69069 -0.66037899 2.72679
2.6902699 -0.65551901 2.7270899
2.6925499 -0.65218699 2.75033
2.7285299 -0.35992 2.6967299
2.6990499 -0.60017699 2.72049
2.7216899 -0.36115101 2.7357099
2.6910999 -0.57913101 2.7581699
2.69276 -0.57780802 2.7381401
2.7023499 -0.56906098 2.7177
2.69519 -0.56276703 2.75699
2.7038801 -0.55398798 2.7416601
2.6997299 -0.53381503 2.7536399
2.70542 -0.530967 2.7393601
2.7081599 -0.52711201 2.7142799
2.7072001 -0.52040499 2.7389801
2.70245 -0.51551402 2.7507
2.7130799 -0.481206 2.73544
2.7251699 -0.383481 2.69976
2.7207 -0.435893 2.7000101
2.72033 -0.43436301 2.7291901
2.7186401 -0.42813399 2.7033701
2.7243199 -0.404318 2.7019601
2.7235301 -0.40185601 2.6998701
2.72207 -0.369688 2.7183199
2.7292199 -0.343411 2.7187901
2.7309799 -0.33559501 2.7183399
2.7323999 -0.331108 2.69366
2.7351799 -0.30695 2.7151501
2.7356 -0.30489299 2.6907499
2.7361901 -0.29697099 2.6907401
2.7360699 -0.28855601 2.7129099
2.73716 -0.278056 2.71279
2.7222199 -0.414855 2.70244
2.7416601 -0.24676099 2.7095599
2.7406099 -0.20889901 2.7207401
2.74211 -0.195712 2.7181101
2.7060101 -0.54035097 2.71471
2.74301 -0.193232 2.7202699
2.76263 -0.064353101 2.6676199
2.74628 -0.188548 2.7045801
2.75278 -0.157424 2.6761701
2.75295 -0.152008 2.67624
2.7455001 -0.14999799 2.6960499
2.7522199 -0.146678 2.6986699
2.75565 -0.13090999 2.6733601
2.74946 -0.118137 2.6930001
2.7535 -0.083500102 2.68998
2.7616 -0.075120598 2.6701901
2.75682 -0.051292501 2.68715
2.7548001 -0.122931 2.69836
2.76579 -0.037787098 2.66471
2.76018 -0.030284399 2.6840301
2.71562 -0.45688799 2.70614
2.75107 -0.102569 2.7100401
2.76089 -0.0061569298 2.7016699
2.7598701 2.3189001e-05 2.7021999
2.7601399 0.0150542 2.6851101
2.7171199 -0.46285701 2.7319901
2.7665901 0.053368099 2.6962399
2.77669 0.058306299 2.6558399
2.78543 0.14786001 2.64745
2.75962 -0.093711801 2.6704199
2.7529399 -0.088843197 2.6900401
2.78789 0.18412 2.6448801
2.7797 0.186882 2.68505
2.7134099 -0.48030001 2.70876
2.79195 0.207432 2.6416099
2.75334 -0.084074602 2.7097001
2.7834401 0.21644101 2.6819899
2.7114601 -0.49937099 2.7355199
2.78914 0.233575 2.64288
2.7569699 -0.063300803 2.70648
2.7946601 0.24077401 2.6389101
2.78317 0.126118 2.6502099
2.7715001 0.0991771 2.6931901
2.7642801 0.0460243 2.6993501
2.77389 0.034241799 2.6587
2.7681701 0.032368399 2.6975999
2.6942699 -0.62184203 2.74821
2.76879 -0.0082945898 2.6619
2.70015 -0.58488899 2.71808
2.7614999 -0.0168579 2.6839001
2.7586901 -0.0276777 2.70436
2.74508 -0.155652 2.7156899
2.7657199 0.039633099 2.6961999
2.6927099 -0.63454199 2.7267599
2.77051 0.0048790802 2.6616299
2.6919899 -0.59644902 2.7596099
2.7118299 -0.490854 2.7090499
2.6825299 -0.56445098 2.74915
2.65294 -0.64941603 2.7677901
2.77315 0.231635 2.6703
2.70435 -0.407489 2.7305601
2.7597899 0.071686 2.6841099
2.6926401 -0.646851 2.72662
2.6928 -0.63022399 2.72771
2.6960499 -0.60400999 2.75807
2.7869699 0.170698 2.6470799
2.69403 -0.59400302 2.7583201
2.72436 -0.36206201 2.73401
2.7315099 -0.334723 2.71857
2.6946399 -0.58101499 2.7573199
2.6990399 -0.57890803 2.7450299
2.6954501 -0.56601 2.75635
2.70224 -0.56078702 2.7175701
2.7030399 -0.55528897 2.7141099
2.7034099 -0.551732 2.7413599
2.69697 -0.55068898 2.7550099
2.6976199 -0.54902703 2.73614
2.7046199 -0.545102 2.71575
2.70437 -0.543495 2.7142601
2.7047 -0.53749198 2.7162299
2.7052901 -0.53561503 2.71435
2.7003801 -0.52907598 2.7531099
2.7065799 -0.52551597 2.71612
2.7005 -0.51974702 2.7520599
2.7086 -0.51197898 2.71261
2.7019899 -0.50982499 2.7520001
2.7085099 -0.50370097 2.7371299
2.71083 -0.49240899 2.7111101
2.71261 -0.48060399 2.7093101
2.71121 -0.478596 2.7341499
2.7149 -0.462648 2.7316899
2.71486 -0.46093401 2.7078099
2.7167499 -0.44711599 2.70608
2.71749 -0.443073 2.7300501
2.7855 0.13593499 2.6477499
2.71824 -0.43341401 2.7286501
2.7191801 -0.43319499 2.7040999
2.7200799 -0.41956601 2.7286899
2.7210901 -0.417371 2.7025001
2.7219501 -0.40927699 2.70436
2.7228301 -0.40573099 2.7265601
2.72331 -0.394054 2.72543
2.72648 -0.37238699 2.72192
2.72894 -0.34860501 2.7206099
2.73137 -0.34559101 2.6953299
2.73646 -0.31969699 2.6893899
2.73489 -0.31953299 2.69362
2.73592 -0.31355801 2.6917601
2.7383299 -0.295479 2.6900401
2.73737 -0.305574 2.6898501
2.74072 -0.27940401 2.68821
2.7377501 -0.29743499 2.6919501
2.7402599 -0.210842 2.69978
2.74139 -0.20517699 2.7190599
2.74948 -0.202097 2.67838
2.7429099 -0.199264 2.7187099
2.74122 -0.18981899 2.6970799
2.7450099 -0.18517999 2.7203901
2.7442701 -0.180667 2.7175601
2.7500701 -0.17483699 2.68153
2.7443399 -0.172178 2.7163301
2.7448599 -0.160943 2.6972401
2.7537799 -0.154449 2.67576
2.7456601 -0.148221 2.6958699
2.74843 -0.147157 2.6982801
2.7507401 -0.145877 2.69909
2.75196 -0.143373 2.68259
2.7558999 -0.129326 2.67452
2.75316 -0.122848 2.6940801
2.7508199 -0.122892 2.71119
2.7581201 -0.108428 2.6729801
2.7536399 -0.108929 2.7107601
2.7544401 -0.100508 2.7091601
2.75963 -0.0936905 2.67138
2.75366 -0.089199796 2.7084899
2.7553501 -0.083416604 2.70807
2.7556 -0.081487097 2.7098601
2.7627201 -0.079479299 2.66728
2.7548699 -0.072883099 2.6891601
2.7569201 -0.068713903 2.7065101
2.75666 -0.068887196 2.71018
2.75635 -0.057938401 2.6875899
2.74208 -0.26728299 2.6865799
2.7588999 -0.0368005 2.68593
2.75771 -0.033657301 2.7065899
2.7671599 -0.0215909 2.66505
2.76019 -0.019575501 2.6863899
2.76209 -0.017628601 2.67837
2.7659299 -0.0100438 2.6698599
2.7608299 -0.0086731901 2.6867599
2.7551601 0.0105603 2.7105999
2.7635701 0.0155329 2.6979799
2.77263 0.0163114 2.65942
2.7643199 0.044649001 2.69944
2.78018 0.092428997 2.65312
2.77124 0.103137 2.69261
2.7757199 0.0624859 2.6588399
2.7763 0.060027901 2.65663
2.7748101 0.0516169 2.6586101
2.7623999 0.034244601 2.7014799
2.69824 -0.59741497 2.7204499
2.7002599 -0.576603 2.74455
2.7608299 0.00097308197 2.7019401
2.7002499 -0.57443899 2.7193301
2.75998 -0.0213548 2.70453
2.69507 -0.56426698 2.7567
2.76192 -0.072665602 2.6698101
2.69769 -0.537247 2.75564
2.7612901 -0.087727703 2.66922
2.7067201 -0.525675 2.7143199
2.75265 -0.094029099 2.69067
2.7520399 -0.105887 2.7081699
2.7112401 -0.487982 2.7351501
2.7550399 -0.123661 2.6949699
2.74652 -0.155792 2.7146101
2.75209 -0.171048 2.6773
2.74894 -0.202007 2.6804099
2.74228 -0.20333201 2.7205
2.77319 0.031866301 2.6600399
2.7569101 -0.051553398 2.6877301
2.6969299 -0.610138 2.7207699
2.69785 -0.60302597 2.72229
2.6963899 -0.59314001 2.7583599
2.6982501 -0.59639198 2.72261
2.6993001 -0.59211701 2.7453101
2.6993899 -0.58965498 2.7210701
2.69803 -0.58515799 2.72369
2.6940501 -0.573717 2.7588401
2.6967101 -0.56659001 2.7549601
2.7020099 -0.56788403 2.7184701
2.6968601 -0.55331397 2.75752
2.69818 -0.544662 2.7574799
2.6982901 -0.54339403 2.7546699
2.7053499 -0.53916198 2.7160201
2.7839999 0.14116 2.6500199
2.70891 -0.51366198 2.73787
2.70927 -0.50386202 2.7370801
2.7135 -0.47984999 2.7337501
2.7149899 -0.46799201 2.73245
2.7198501 -0.43386701 2.7281699
2.7849901 0.13594601 2.6492701
2.72104 -0.41176599 2.7279
2.7188101 -0.39942399 2.7390399
2.7273099 -0.38058501 2.7225101
2.7272401 -0.36689499 2.72223
2.72369 -0.366355 2.73754
2.7244101 -0.364748 2.7343299
2.74138 -0.21489801 2.72083
2.7443299 -0.193479 2.71942
2.7444899 -0.18055201 2.7203901
2.74315 -0.202406 2.7193601
2.7261801 -0.380474 2.69945
2.7087901 -0.52865702 2.7105401
2.70643 -0.52741897 2.71491
2.7202599 -0.420652 2.70399
2.7093599 -0.51522499 2.7113099
2.7085099 -0.51364899 2.7133901
2.71015 -0.505 2.7117
2.71154 -0.494748 2.7102799
2.71174 -0.48799199 2.7107201
2.71488 -0.457142 2.7084999
2.7488501 -0.201032 2.6814499
2.7163899 -0.44846299 2.7068801
2.75037 -0.186426 2.6786599
2.72087 -0.420679 2.7021599
2.72173 -0.40492901 2.7044301
2.72457 -0.39442199 2.7007301
2.7245901 -0.39268801 2.70085
2.7284999 -0.362939 2.69807
2.7600801 -0.092276201 2.6712201
2.7356701 -0.32079899 2.6914999
2.7375901 -0.29955399 2.6905899
2.73967 -0.27255401 2.71261
2.7424099 -0.25863999 2.68661
2.7462399 -0.237363 2.6816499
2.7462599 -0.220836 2.6828401
2.74002 -0.219758 2.69995
2.74122 -0.20887899 2.70015
2.7449501 -0.195171 2.70838
2.7414401 -0.18643001 2.7002101
2.74437 -0.18418001 2.7186501
2.77177 0.099368401 2.6949699
2.74351 -0.177356 2.69362
2.743 -0.178146 2.71839
2.75068 -0.17338599 2.67944
2.7438099 -0.166339 2.7005
2.7519901 -0.166188 2.6777599
2.7449901 -0.16369399 2.7169399
2.7456801 -0.155403 2.6972499
2.75372 -0.153447 2.67626
2.74928 -0.147293 2.69908
2.7477901 -0.147524 2.71365
2.74892 -0.14225601 2.71345
2.7535501 -0.141248 2.69731
2.7547801 -0.138528 2.67524
2.75578 -0.138203 2.69485
2.7548101 -0.128473 2.6976199
2.7511599 -0.124048 2.7121501
2.74998 -0.114508 2.6934199
2.7526801 -0.1111 2.70929
2.7585599 -0.105276 2.6726201
2.75492 -0.100701 2.7104199
2.7548599 -0.098633699 2.70909
2.75317 -0.092350602 2.69031
2.7754099 0.092119798 2.65885
2.7525899 -0.090027899 2.7125299
2.76016 -0.088422 2.6714499
2.7537601 -0.082860097 2.6907001
2.7553 -0.085232504 2.70836
2.7544301 -0.081080601 2.68893
2.7562799 -0.077963904 2.70841
2.7544501 -0.073390298 2.6910501
2.7646101 -0.064803898 2.66624
2.7778699 0.084058598 2.6556101
2.75863 -0.0555139 2.7058201
2.77086 0.081676699 2.6925399
2.75788 -0.047055501 2.6865201
2.77581 0.081298202 2.65798
2.7585199 -0.041551098 2.7054
2.7664101 -0.036033198 2.66576
2.7679501 -0.032772198 2.6636801
2.7620201 -0.0171555 2.68345
2.7674601 -0.0165205 2.665
2.76121 -0.0116344 2.67626
2.7692699 -0.0094257696 2.6630399
2.7607 -0.0087166196 2.70365
2.76212 -0.0043176902 2.6779301
2.7639799 -0.0059120501 2.68012
2.7603099 0.00177956 2.7030799
2.7575099 0.0053984001 2.7063899
2.77089 0.00382177 2.6615801
2.7713499 0.017685801 2.6622901
2.7630701 0.0246516 2.7002201
2.7523999 0.033176102 2.71278
2.7552299 0.037635099 2.7100401
2.7629199 0.0369948 2.70122
2.77372 0.0389142 2.6594
2.77494 0.046466399 2.6577301
2.77774 0.075833298 2.6551499
2.77581 0.062295999 2.65837
2.70118 -0.56265402 2.7212501
2.7035501 -0.55779201 2.71767
2.71208 -0.480019 2.7125199
2.77864 0.086212799 2.65558
2.7172101 -0.44361499 2.7072799
2.7235799 -0.39443401 2.7035301
2.7256999 -0.39134899 2.69994
2.7320099 -0.34347299 2.6948099
2.7355399 -0.33265701 2.69099
2.7274001 -0.316138 2.71134
2.74616 -0.243349 2.68255
2.7449 -0.17469899 2.71591
2.7439699 -0.172107 2.6997199
2.74773 -0.15052301 2.7135401
2.75526 -0.142998 2.67553
2.7504399 -0.133068 2.71329
2.7579601 -0.131712 2.69327
2.75423 -0.10668 2.6800499
2.7519801 -0.106521 2.69207
2.75208 -0.103106 2.69227
2.7597799 -0.103614 2.6718299
2.7544501 -0.065727599 2.6923699
2.7588799 -0.0540291 2.7053299
2.76404 -0.0282139 2.6707301
2.76474 -0.019689901 2.6709499
2.763 -0.00928088 2.6835699
2.76985 -0.0061275 2.6636801
2.7620499 0.0157906 2.7035799
2.77479 0.034767099 2.65835
2.7744401 0.0460875 2.65927
2.7742801 0.026229899 2.6596601
2.65201 -0.76268297 2.7735901
2.6941199 -0.47406 2.70069
2.7988701 0.452306 2.66448
2.8006599 0.45833299 2.6542799
2.7941699 0.383257 2.6619699
2.71562 -0.35910201 2.69256
2.6535499 -0.81414801 2.7472701
2.77894 0.268738 2.6791999
2.7741799 0.147872 2.6433201
2.6835899 -0.55404299 2.7543499
2.7499199 -0.00078074803 2.6684
2.767 0.107475 2.6526301
2.68836 -0.69637299 2.7560301
2.67992 -0.69746798 2.75207
2.6937599 -0.66561699 2.7514601
2.78426 0.225609 2.68345
2.7930501 0.217429 2.6420801
2.7843699 0.197892 2.68209
2.7885101 0.204725 2.6452501
2.7650101 0.24315301 2.6186099
2.6993201 -0.60856199 2.7584701
2.69716 -0.60442603 2.7478199
2.7595899 0.024219399 2.7026899
2.77951 0.16601799 2.68678
2.7402 -0.21137699 2.72348
2.7866199 0.156452 2.6483901
2.7053599 -0.53878701 2.71558
2.69789 -0.59224302 2.72189
2.6940401 -0.58119297 2.7588899
2.6998601 -0.58129799 2.7175701
2.7001901 -0.57451898 2.7198701
2.6933701 -0.57087702 2.75788
2.7010601 -0.56739098 2.7443099
2.7023101 -0.55876201 2.7198501
2.7033601 -0.55618799 2.74192
2.7035501 -0.552113 2.7176499
2.69788 -0.541637 2.7555799
2.6990299 -0.53263599 2.75561
2.7060201 -0.52546602 2.7405801
2.6995599 -0.52159899 2.7560799
2.70261 -0.50592202 2.75156
2.7118599 -0.48763201 2.7341399
2.7127099 -0.480892 2.7341599
2.71575 -0.45629999 2.73224
2.7163601 -0.445135 2.73264
2.7188699 -0.42938599 2.7304101
2.72422 -0.400065 2.7256801
2.7271299 -0.37524301 2.72381
2.7235701 -0.35887101 2.7387199
2.7328801 -0.32076499 2.7182701
2.7351301 -0.300172 2.7164099
2.7390599 -0.27735201 2.7139499
2.77248 0.103482 2.69296
2.7851 0.138777 2.64816
2.7409799 -0.211538 2.72104
2.6996 -0.58684099 2.74578
2.74823 -0.322561 2.6768
2.7115901 -0.48951301 2.7115901
2.71594 -0.45358399 2.7076199
2.7078099 -0.51653701 2.7137401
2.72891 -0.36048499 2.6969299
2.7133801 -0.47164199 2.70976
2.71859 -0.43548101 2.70544
2.7210901 -0.417487 2.70123
2.7553 -0.132294 2.6749001
2.7709 0.0966473 2.6932199
2.7227499 -0.40153101 2.7014101
2.7500801 -0.129113 2.7133901
2.7237799 -0.396929 2.7012401
2.72399 -0.396804 2.7032399
2.7258799 -0.37874299 2.69927
2.7190399 -0.362198 2.71766
2.72049 -0.35293999 2.7175701
2.7315199 -0.337603 2.6949899
2.7232599 -0.32990801 2.71348
2.75772 -0.0471499 2.7061701
2.73703 -0.30092499 2.69052
2.7572501 -0.0596526 2.70783
2.7434499 -0.25722399 2.6839199
2.74228 -0.254668 2.68661
2.7429199 -0.245298 2.68683
2.74265 -0.238021 2.7104599
2.74528 -0.23146699 2.6845
2.74475 -0.231362 2.68683
2.7472601 -0.212761 2.68256
2.7403901 -0.199251 2.7007999
2.74001 -0.186984 2.69946
2.7458401 -0.188555 2.7055399
2.75915 -0.0274208 2.7044899
2.74454 -0.171424 2.7175901
2.7524199 -0.160833 2.6767499
2.74385 -0.15616301 2.6973901
2.74471 -0.153963 2.69717
2.7468801 -0.15016501 2.7156799
2.75337 -0.148904 2.67697
2.7597001 -0.0200499 2.7046599
2.7397299 -0.277852 2.68853
2.7532001 -0.122295 2.6954701
2.7514901 -0.114769 2.7114699
2.7495699 -0.110891 2.6931701
2.7514 -0.091490701 2.6912799
2.7690101 -0.0095861303 2.6626501
2.7599699 -0.086762398 2.67102
2.75473 -0.083696298 2.7097001
2.7611001 -0.082138099 2.6686699
2.76073 -0.079572 2.6710899
2.75301 -0.0770569 2.69139
2.7557399 -0.074031301 2.70767
2.7622199 -0.070081301 2.6688299
2.7655001 -0.0082771098 2.6726699
2.76285 -0.060293201 2.66905
2.75612 -0.050363701 2.68718
2.7571599 -0.039402001 2.7089601
2.7653301 -0.036036901 2.6671
2.7595699 -0.0238274 2.68501
2.75932 0.0208872 2.68065
2.7704999 0.00258787 2.66049
2.7616601 0.0126062 2.7012601
2.7635701 0.040264301 2.69977
2.7621601 0.024268201 2.6819799
2.7732699 0.0321748 2.6586399
2.776 0.067266203 2.6570301
2.77949 0.094373196 2.65259
2.7709401 0.0968481 2.69102
2.7741301 0.049907599 2.6591101
2.7444501 -0.23844901 2.6844699
2.7777901 0.079452001 2.6547401
2.65523 -0.78303897 2.7838399
2.73751 -0.470009 2.7423699
2.65553 -0.728719 2.7788999
2.6598899 -0.70393401 2.77565
2.80634 0.50034302 2.65817
2.8013101 0.45543599 2.65712
2.7964799 0.40435401 2.6628101
2.6659501 -0.79815298 2.74593
2.7874801 0.28898701 2.6752
2.68554 -0.62278903 2.76232
2.6753199 -0.731022 2.73771
2.77913 0.22759099 2.68888
2.7795801 0.226706 2.6826401
2.75841 -0.0029662 2.6772101
2.6947401 -0.565606 2.72436
2.69625 -0.56026298 2.7174001
2.6947401 -0.53510499 2.72155
2.7072999 -0.48081499 2.70767
2.6956899 -0.56636399 2.7180901
2.72334 -0.339901 2.69118
2.7709 0.081693798 2.65431
2.70647 -0.450073 2.7049999
2.6759901 -0.743038 2.7730401
2.81651 0.52275997 2.6157401
2.81603 0.52803099 2.6154799
2.8025401 0.42984399 2.6616099
2.8022699 0.46896401 2.66343
2.6721399 -0.67943197 2.7696099
2.7978799 0.37084001 2.66698
2.68296 -0.65460801 2.7649901
2.7545199 -0.0896018 2.71083
2.67342 -0.793437 2.74053
2.67454 -0.774894 2.73892
2.7444601 -0.1489 2.69963
2.7862999 0.26382801 2.6775801
2.7890301 0.250442 2.642
2.7862301 0.204551 2.6459899
2.78126 0.209677 2.6827199
2.69081 -0.62978601 2.72455
2.7822001 0.164134 2.6498699
2.7304599 0.23361699 2.60075
2.77774 0.123883 2.6538501
2.69174 -0.56600302 2.7564399
2.6945601 -0.59715801 2.7212999
2.7356501 -0.270116 2.68788
2.6907899 -0.57532102 2.75735
2.7038901 -0.52276599 2.7137001
2.7104299 -0.43685701 2.73331
2.72401 -0.36142799 2.6972499
2.75369 -0.047131099 2.7080801
2.7594299 0.040296599 2.7004299
2.7634301 0.0029819601 2.6660199
2.70611 -0.49038899 2.71083
2.75371 -0.0188675 2.70611
2.73244 -0.30211699 2.6909599
2.73915 -0.238203 2.6847401
2.71768 -0.407305 2.70207
2.7693999 0.052293401 2.66102
2.76054 -0.0046324902 2.67628
2.7741899 0.097278997 2.65662
