# .PCD v0.7 - Point Cloud Data file format
VERSION 0.7
FIELDS x y z
SIZE 4 4 4
TYPE F F F
COUNT 1 1 1
WIDTH 110
HEIGHT 1
VIEWPOINT 0 0 0 1 0 0 0
POINTS 110
DATA ascii
-3.6768501 1.02763 1.32127
-3.8792701 0.44198099 1.5114501
-3.7693901 1.0134799 1.24827
-3.7059801 0.97665101 1.3384
-3.66134 1.01255 1.3405499
-3.8364401 0.76110601 1.35754
-3.6591101 1.06988 1.32807
-3.59921 1.18155 1.28299
-3.6918099 1.20991 1.26648
-3.6658001 1.15347 1.32197
-3.7044899 1.16432 1.2697999
-3.6561899 1.0766 1.3290401
-3.6760001 1.20081 1.29696
-3.7739999 0.83784097 1.34194
-3.7058899 1.02764 1.2671
-3.68522 1.15362 1.2650599
-3.7313299 0.99295503 1.3202
-3.7028201 1.09902 1.26305
-3.7100301 1.09988 1.30779
-3.66696 1.15518 1.26157
-3.7615399 0.76851702 1.30404
-3.7267399 1.00186 1.32411
-3.7009699 1.1666501 1.25863
-3.7662399 1.13301 1.29556
-3.7423899 0.82560903 1.34295
-3.7274201 0.99639398 1.31946
-3.61587 1.03312 1.3375601
-3.64184 1.18831 1.30776
-3.7503901 1.03125 1.26375
-3.71422 1.12833 1.25568
-3.6589701 1.13008 1.3132401
-3.74137 0.77158201 1.3530101
-3.681 1.08161 1.30527
-3.6514399 0.96375299 1.33568
-3.74718 1.02653 1.2606699
-3.7388 1.12753 1.25305
-3.6607001 1.00801 1.33055
-3.6198299 1.10514 1.32381
-3.8059399 0.766509 1.35277
-3.6584301 0.992006 1.34806
-3.6805601 1.16474 1.31668
-3.6564701 0.96448302 1.3383501
-3.6786799 1.1924 1.24635
-3.78793 0.81427902 1.28074
-3.6125 1.14917 1.31186
-3.69856 1.15754 1.2978801
-3.7079 1.01118 1.3042901
-3.7588201 0.92413801 1.25878
-3.79267 0.82501298 1.31419
-3.7873099 0.81227201 1.27002
-3.6317401 1.0878201 1.30031
-3.7748899 0.80952603 1.2719899
-3.70245 1.18505 1.2279
-3.7395301 1.08595 1.2374099
-3.7669101 0.808999 1.3189501
-3.6388299 1.05059 1.25954
-3.59234 1.15841 1.28869
-3.75611 0.82717198 1.26574
-3.6638501 1.14869 1.28008
-3.8451099 0.66320801 1.30014
-3.64662 0.99000502 1.30742
-3.6643 1.0046999 1.3019
-3.7716899 0.75571197 1.32508
-3.76264 0.79730201 1.27001
-3.7137101 0.97660702 1.29671
-3.6668601 1.15204 1.2789201
-3.6628399 1.1917 1.2745
-3.68366 1.08307 1.24299
-3.78741 0.71010399 1.30822
-3.7081699 1.09147 1.25123
-3.7855401 0.771478 1.29689
-3.7024 1.12419 1.3077199
-3.76578 0.86208999 1.28354
-3.8059199 0.69453901 1.29798
-3.76547 0.78264302 1.32851
-3.7223101 0.946899 1.2588201
-3.70068 0.95855099 1.30664
-3.69345 1.05575 1.24888
-3.6507101 1.0320801 1.33731
-3.65048 1.20278 1.2733999
-3.6198599 1.20632 1.22104
-3.6622701 1.12297 1.2802
-3.6658101 1.16541 1.23499
-3.6923599 1.14308 1.29137
-3.7088101 1.02746 1.30805
-3.7646101 0.78999102 1.27228
-3.7437 0.805731 1.31637
-3.7342801 0.81551403 1.31993
-3.69066 0.99588102 1.24472
-3.6512499 1.16513 1.27959
-3.70789 0.99832797 1.25055
-3.6696601 1.13226 1.27985
-3.6974001 1.0844899 1.23671
-3.78216 0.78527302 1.29325
-3.7709301 0.81149298 1.27754
-3.73247 0.99970102 1.3099
-3.7620699 0.71596497 1.2914
-3.71998 1.04224 1.26121
-3.6944799 1.079 1.30932
-3.67924 1.1345 1.30633
-3.69403 1.1549799 1.23778
-3.7196701 1.14452 1.27026
-3.8636899 0.66688001 1.31163
-3.7739201 0.75594801 1.2718101
-3.67749 1.05896 1.2943799
-3.68625 1.06972 1.24105
-3.76035 0.865601 1.26737
-3.6478601 1.1986099 1.2852499
-3.7427299 0.870992 1.31143
-3.6670699 1.16864 1.23516
