# .PCD v0.7 - Point Cloud Data file format
VERSION 0.7
FIELDS x y z
SIZE 4 4 4
TYPE F F F
COUNT 1 1 1
WIDTH 189
HEIGHT 1
VIEWPOINT 0 0 0 1 0 0 0
POINTS 189
DATA ascii
1.475 0.14330301 1.55598
1.6056401 0.12950499 1.6454901
1.61629 0.124132 1.72825
1.59816 0.137327 1.6141
1.6495301 0.13155501 1.71905
1.6046799 0.124682 1.61799
1.60941 0.125008 1.68367
1.52766 0.136081 1.61464
1.57267 0.134285 1.72575
1.57022 0.134551 1.63221
1.5289201 0.150491 1.59304
1.54083 0.14404801 1.5647
1.54152 0.145027 1.67255
1.57716 0.129472 1.65426
1.53574 0.149967 1.65674
1.51484 0.14537901 1.68399
1.54059 0.139209 1.5569299
1.55012 0.14005899 1.61801
1.5558 0.128452 1.5603499
1.56749 0.128456 1.58281
1.5106 0.15287 1.71821
1.51378 0.15466499 1.69067
1.51691 0.144044 1.5378799
1.52733 0.144603 1.71241
1.54653 0.025091499 1.57549
1.50834 0.146494 1.67654
1.52527 0.14479899 1.62607
1.4989901 0.157684 1.70552
1.48801 0.160052 1.72602
1.53469 0.142662 1.6137
1.53712 0.031807899 1.60544
1.50525 0.151242 1.70716
1.51976 0.14849 1.64205
1.52736 0.14066701 1.55009
1.5652 0.021593601 1.59851
1.50349 0.147193 1.59051
1.5033 0.153236 1.70688
1.54748 0.12801699 1.58084
1.4604 0.044651002 1.61209
1.5370899 0.13689101 1.54362
1.56399 0.021960201 1.5914
1.50512 0.035004001 1.6167901
1.50269 0.152915 1.68118
1.49359 0.037263799 1.60734
1.48748 0.146936 1.65347
1.50888 0.13977499 1.57478
1.54404 0.026019201 1.57227
1.5223 0.14705899 1.60276
1.47101 0.164812 1.70366
1.45956 0.176817 1.66198
1.51859 0.152908 1.59943
1.49748 0.156342 1.66003
1.49331 0.158287 1.64422
1.49482 0.157279 1.6199
1.48954 0.15604 1.68313
1.5123301 0.147903 1.56854
1.5192 0.144807 1.59201
1.53227 0.12937599 1.53519
1.54118 0.132377 1.53931
1.4966 0.160143 1.65218
1.48599 0.162377 1.6841201
1.5017999 0.15956201 1.73385
1.5388 0.142591 1.65764
1.53992 0.14279 1.61655
1.55208 0.12905601 1.55795
1.51685 0.15290099 1.72961
1.5342 0.147425 1.70635
1.5454299 0.144665 1.65098
1.55 0.13481601 1.5561301
1.55336 0.128868 1.54273
1.5423501 0.145449 1.66478
1.56303 0.134247 1.6241601
1.5343699 0.023957901 1.59867
1.55128 0.132338 1.53557
1.53203 0.14929099 1.72394
1.5439399 0.14489 1.69199
1.55378 0.14116 1.6314
1.54873 0.143047 1.65246
1.55722 0.137357 1.5993201
1.52597 0.15485001 1.7285
1.49945 0.0301881 1.60946
1.54807 0.14363199 1.6646399
1.5562201 0.14168499 1.61597
1.55522 0.136856 1.65534
1.5262901 0.156984 1.72867
1.536 0.149682 1.7165
1.5457799 0.143281 1.68858
1.55463 0.13125201 1.54
1.56016 0.137603 1.61383
1.41348 0.063878603 1.72921
1.5592099 0.135866 1.62642
1.55206 0.14563 1.65238
1.53666 0.150436 1.70578
1.52238 0.155633 1.73761
1.52373 0.15101901 1.7421
1.55993 0.13598301 1.61532
1.45433 0.054629199 1.58954
1.5545501 0.13493501 1.55505
1.52223 0.15103599 1.74782
1.54176 0.144596 1.70443
1.53672 0.147164 1.71584
1.55565 0.137578 1.65661
1.55523 0.13100301 1.55257
1.55634 0.140836 1.6289999
1.55976 0.13560501 1.61411
1.52894 0.14905301 1.73185
1.5600899 0.13305999 1.60321
1.5568399 0.13836899 1.61963
1.55617 0.138944 1.63491
1.54961 0.14301001 1.66269
1.53957 0.145981 1.70489
1.5589401 0.12998199 1.5713201
1.5382 0.135465 1.62985
1.5058 0.15672 1.74192
1.5405999 0.13778 1.6257401
1.52731 0.146568 1.6896
1.52584 0.153864 1.73005
1.54579 0.14274199 1.68066
1.55318 0.138511 1.6532
1.5581501 0.131429 1.5736099
1.55961 0.132503 1.59768
1.45005 0.0600942 1.6421601
1.47287 0.049875401 1.57956
1.50372 0.042785201 1.64502
1.52993 0.148082 1.7269599
1.50989 0.160942 1.72999
1.53518 0.14913 1.70987
1.54381 0.144374 1.68484
1.55213 0.12909099 1.53364
1.55786 0.13484 1.6119
1.55586 0.131098 1.57336
1.55002 0.127893 1.54801
1.55683 0.13602801 1.58455
1.55873 0.13567799 1.5684201
1.55229 0.13679101 1.6273201
1.54934 0.142582 1.65855
1.55825 0.132875 1.5831701
1.55409 0.13001101 1.54357
1.55642 0.13786399 1.64355
1.55641 0.139368 1.63932
1.55933 0.136278 1.61378
1.55769 0.138081 1.60498
1.5529799 0.14090399 1.65627
1.53364 0.14815199 1.71399
1.54422 0.145153 1.6786
1.5443701 0.14621 1.6725
1.5265 0.151164 1.72751
1.5246 0.15319499 1.73063
1.46821 0.044137899 1.59389
1.55515 0.140516 1.64465
1.55948 0.135498 1.607
1.53157 0.151049 1.71606
1.53947 0.147719 1.6961401
1.5205899 0.1551 1.73975
1.5498101 0.028526699 1.61058
1.5498101 0.134187 1.57789
1.54573 0.15506899 1.6559401
1.54026 0.14222001 1.66948
1.54984 0.14045601 1.62213
1.52148 0.146771 1.70548
1.50863 0.156717 1.74354
1.51267 0.162791 1.73727
1.51423 0.160512 1.74362
1.52491 0.15334199 1.7298599
1.55215 0.127185 1.5233901
1.5549999 0.13096499 1.54655
1.55885 0.134223 1.62861
1.55987 0.134773 1.59981
1.55914 0.13404199 1.59069
1.5523 0.140579 1.66021
1.55012 0.14286 1.6655999
1.55484 0.141682 1.64283
1.5288 0.151787 1.7214299
1.54013 0.146249 1.69802
1.53283 0.148343 1.71627
1.51439 0.15645 1.74545
1.55072 0.142407 1.66852
1.55395 0.130502 1.54407
1.55568 0.133834 1.57754
1.42053 0.0703502 1.63801
1.45841 0.054379199 1.58056
1.55233 0.14085799 1.63091
1.55048 0.14214 1.6357501
1.55724 0.133478 1.59332
1.46341 0.046524201 1.59103
1.4436001 0.055770699 1.60998
1.51862 0.154769 1.72243
1.52658 0.152694 1.70745
1.5355099 0.14949501 1.67863
