# .PCD v0.7 - Point Cloud Data file format
VERSION 0.7
FIELDS x y z
SIZE 4 4 4
TYPE F F F
COUNT 1 1 1
WIDTH 1603
HEIGHT 1
VIEWPOINT 0 0 0 1 0 0 0
POINTS 1603
DATA ascii
4.2258301 0.50821298 6.66678
4.0407 0.68631899 6.7068
4.1245799 0.63793498 6.6985302
4.13797 0.63470399 6.69977
4.12956 0.64255601 6.69695
4.1300802 0.643457 6.6992698
4.1395402 0.64376301 6.6981001
4.1765399 0.64416897 6.6978102
4.09899 0.687958 6.69836
4.0560098 0.69595301 6.7046099
4.0532498 0.69632202 6.704
4.1280198 0.687199 6.70191
4.1170402 0.68878299 6.70123
4.1104202 0.689776 6.70193
4.0974698 0.69172603 6.70362
4.09794 0.68838203 6.6978302
4.14957 0.68114901 6.6879802
4.1468301 0.681602 6.6895299
4.1396399 0.682733 6.6907902
4.1366601 0.683218 6.69207
4.13096 0.68412298 6.69344
4.0887499 0.69170398 6.7017698
4.0838299 0.69246203 6.7012801
4.0788898 0.69326299 6.7028098
4.1255598 0.68670601 6.6962199
4.1178999 0.68795502 6.6982899
4.1136799 0.688649 6.6997499
4.10638 0.689834 6.7014198
4.1438599 0.684587 6.6940899
4.1392598 0.685381 6.6975698
4.13169 0.63784498 6.7030101
4.11865 0.64014101 6.6974101
4.1301498 0.643076 6.6967001
4.1324301 0.64373398 6.69736
4.13377 0.64439899 6.6978002
4.2160702 0.64120001 6.6950002
4.2100902 0.64139599 6.6944098
4.14605 0.644391 6.6964202
4.14044 0.64477497 6.6977401
4.2006502 0.64240098 6.6948199
4.19663 0.64248002 6.69383
4.15447 0.64465398 6.6963301
4.1869402 0.64360601 6.69486
4.1816301 0.64389199 6.69519
4.16329 0.64489001 6.6964698
4.1578102 0.64517599 6.6967301
4.1915302 0.64404398 6.6956701
4.1658301 0.64544201 6.69698
4.1872902 0.64554501 6.69696
4.16535 0.64677203 6.6975799
4.0620298 0.69287598 6.6997399
4.05581 0.69381499 6.7002201
4.0474 0.695059 6.6998601
4.119 0.68508297 6.6929102
4.1153798 0.685646 6.6935401
4.1082602 0.68676698 6.6954198
4.2177401 0.67119998 6.6816602
4.21559 0.67153901 6.68185
4.2119999 0.67213303 6.6835799
4.2085099 0.67266703 6.6830502
4.2033401 0.673482 6.6835299
4.09938 0.69092298 6.7003002
4.0934701 0.691845 6.6996002
4.0794501 0.69406098 6.6993799
4.07722 0.69441801 6.6996698
4.2399001 0.58546102 6.68504
4.2507701 0.58759302 6.6890302
4.2474899 0.58747703 6.6891098
4.21349 0.58908498 6.68822
4.1963501 0.58901697 6.6876001
4.0476899 0.58845001 6.70818
4.1918201 0.59174401 6.691
4.21102 0.59304702 6.69309
4.1846099 0.59230101 6.6917801
4.20646 0.59358197 6.6935902
4.1816401 0.59299898 6.6928101
4.1739802 0.59359002 6.6936002
4.0464501 0.59491301 6.7142601
4.2025199 0.594621 6.6936402
4.1990399 0.594477 6.69309
4.1961098 0.59506798 6.6935101
4.1916399 0.59561503 6.6937099
4.16361 0.59553099 6.6951699
4.1568298 0.59678298 6.69556
4.1884599 0.59742999 6.6943698
4.18047 0.597395 6.6944599
4.15135 0.59747702 6.6961398
4.1754699 0.59798598 6.69455
4.1416998 0.59832799 6.6977401
4.1703 0.59859401 6.6946301
4.0654302 0.60082197 6.71103
4.1634698 0.59926999 6.6950402
4.1286201 0.60046297 6.6985798
4.1540399 0.60062999 6.6954799
4.1498399 0.60069901 6.6958799
4.1214099 0.60131902 6.6995602
4.1431799 0.60208797 6.6960402
4.1134701 0.602777 6.6995401
4.13622 0.60290098 6.6966
4.1005001 0.603845 6.70122
4.1240802 0.60448402 6.6970301
4.0623498 0.60859799 6.7038002
4.0753198 0.61200202 6.7005601
4.2579498 0.61938298 6.6879702
4.25248 0.61953598 6.6847501
4.27949 0.61951298 6.6841698
4.2666402 0.62352502 6.69488
4.2814798 0.62383598 6.6888299
4.2779198 0.62472498 6.6887598
4.2759199 0.62607199 6.6898499
4.2711802 0.62774199 6.6909599
4.26933 0.62794101 6.6908102
4.2619801 0.62999803 6.6927199
4.2673302 0.63007402 6.6957202
4.2587299 0.63093001 6.6921101
4.0819402 0.68895203 6.6981301
4.0462399 0.696935 6.7097902
4.2407498 0.66865802 6.6852298
4.2147298 0.67756498 6.6839499
4.2678699 0.66555601 6.6779099
4.22472 0.67593902 6.6837101
4.2811599 0.66312599 6.6753802
4.2797298 0.66329002 6.6778498
4.2477398 0.67163903 6.6846499
4.0418801 0.64584303 6.7179499
4.25559 0.63126802 6.69136
4.2767501 0.66393101 6.6792898
4.2208099 0.71464199 6.69064
4.1914001 0.64701903 6.6894102
4.1609101 0.56661499 6.71668
4.03018 0.55712098 6.70716
4.1542201 0.56675899 6.7164798
4.2325501 0.56794298 6.6990399
4.1480098 0.56690699 6.7160702
4.2301998 0.57018697 6.7012701
4.2340498 0.57188702 6.70647
4.1381302 0.56891698 6.7137098
4.1339202 0.57033098 6.71241
4.2158198 0.57227403 6.6998301
4.21207 0.57328701 6.7004099
4.2050099 0.57394397 6.6994801
4.1999102 0.57483703 6.6992102
4.1873798 0.57612199 6.6986699
4.17553 0.57710701 6.6989799
4.1554899 0.57684398 6.6996999
4.14223 0.57799101 6.7001901
4.1268001 0.57790798 6.70116
4.1335101 0.57852203 6.70015
4.26265 0.58152401 6.6837201
4.2557101 0.58262599 6.6842499
4.2508798 0.583287 6.68507
4.2776899 0.58444297 6.6873598
4.2730999 0.58504599 6.6879201
4.2659702 0.58566701 6.6882901
4.1789298 0.59348702 6.6946001
4.1704998 0.59458101 6.6959901
4.2230101 0.59331101 6.6939702
4.04987 0.60065699 6.7080798
4.04565 0.60243702 6.7213001
4.1499901 0.59755898 6.6976399
4.1396399 0.59876001 6.69838
4.1317801 0.60334003 6.6956601
4.2506599 0.62058902 6.6845298
4.2838001 0.61908603 6.68224
4.2837801 0.623317 6.6893601
4.2314401 0.63823199 6.6893001
4.25453 0.67120898 6.6828198
4.3131499 0.65789998 6.6832099
4.3224201 0.65777302 6.6819401
4.3257899 0.66356999 6.6709199
4.2361798 0.56986099 6.7028699
4.12714 0.57101899 6.7107902
4.1641798 0.580607 6.6986499
4.2427101 0.58520001 6.6868401
4.22298 0.58739001 6.6886702
4.1607299 0.60033101 6.6943698
4.1820002 0.64454502 6.6946602
4.17665 0.645468 6.69524
4.1146302 0.69062698 6.6907802
4.1795101 0.67600203 6.6910801
4.2192202 0.67639601 6.68325
4.2818098 0.66264403 6.6839199
4.3105602 0.65884298 6.6826401
4.1917801 0.72803998 6.7027001
4.0766501 0.61092901 6.6999102
4.1313701 0.63596898 6.7016201
4.1656899 0.645621 6.69593
4.1544499 0.54185998 6.7003102
4.1514201 0.54186398 6.7013001
4.14572 0.54204899 6.7039499
4.1280098 0.54202199 6.7095199
4.1178799 0.54316998 6.7150698
4.1140699 0.54305202 6.7157502
4.1410298 0.54287899 6.7037001
4.13588 0.54276502 6.7047901
4.1086202 0.54472202 6.7102199
4.0984201 0.54527497 6.7157502
4.1281099 0.54504198 6.7030301
4.0936499 0.54592299 6.71701
4.1185498 0.54603201 6.7042098
4.0739698 0.54906398 6.7136898
4.0913501 0.549788 6.7058902
4.0831099 0.549833 6.7080498
4.0669098 0.55014998 6.7134399
4.0765901 0.55147499 6.7065902
4.0665898 0.55276901 6.70751
4.0569601 0.55404401 6.70789
4.04877 0.55415601 6.7100301
4.1450901 0.56833899 6.71596
4.1524901 0.57772899 6.7008901
4.2012601 0.59108102 6.6955299
4.18223 0.59715003 6.6918402
4.05058 0.61426097 6.7007599
4.1993499 0.643134 6.6930199
4.3324599 0.65451598 6.6869998
4.3348498 0.65442401 6.68641
4.33916 0.65439802 6.6852798
4.3435502 0.65312397 6.6859398
4.34514 0.65345597 6.6848602
4.1227598 0.57773203 6.7019901
4.0416899 0.59189302 6.7067699
4.2453098 0.58881402 6.6883602
4.2399001 0.58928102 6.6895099
4.2255301 0.59098297 6.6902299
4.1495199 0.60145301 6.6930599
4.2819901 0.62433302 6.6866102
4.1306901 0.682091 6.6935201
4.1181402 0.606897 6.69594
4.0861201 0.609918 6.69841
4.0747199 0.61194003 6.6989498
4.0567298 0.61366302 6.7002001
4.1248102 0.64454103 6.6977
4.2231102 0.638924 6.6914701
4.1585698 0.67880601 6.6930799
4.2042599 0.67228103 6.6884699
4.1874599 0.681045 6.6852999
4.22368 0.67697698 6.6831398
4.12779 0.64405799 6.6986599
4.1236401 0.64414197 6.69978
4.1457701 0.68074501 6.69065
4.1052899 0.68564498 6.6955299
4.1186199 0.68402898 6.6938601
4.13276 0.68231702 6.6921701
4.1436 0.68101102 6.6909499
4.2931499 0.51991802 6.7039199
4.2902799 0.51979202 6.7044601
4.2873001 0.51955301 6.7045798
4.3178902 0.52005601 6.6924801
4.2845898 0.52012801 6.7046499
4.2790298 0.52044499 6.7045498
4.27737 0.52076101 6.70471
4.2737002 0.520845 6.7045598
4.30653 0.52238101 6.69486
4.3051901 0.52284402 6.69559
4.26967 0.522434 6.7053399
4.2665801 0.52215302 6.7051401
4.3003402 0.52337402 6.69596
4.2639499 0.52294803 6.7055802
4.2567201 0.52328497 6.7053099
4.2916002 0.52418101 6.6967402
4.2529502 0.52420998 6.70643
4.2898698 0.52509099 6.6975298
4.24897 0.52433002 6.7060099
4.2438598 0.525258 6.7073302
4.2365499 0.52601099 6.7082801
4.2739501 0.52661699 6.6988502
4.23979 0.52665901 6.7081299
4.2315798 0.52698201 6.7094498
4.2240601 0.52680898 6.7105799
4.2389102 0.52761298 6.7081699
4.2347498 0.52753597 6.7088599
4.2280202 0.52741498 6.71
4.2680998 0.52794802 6.7000999
4.2595301 0.52902102 6.7004199
4.21942 0.53017801 6.7101302
4.2135401 0.530173 6.71139
4.2100601 0.53010798 6.7118301
4.21596 0.53104198 6.7097502
4.2399402 0.530635 6.6999998
4.2041302 0.53247303 6.7108002
4.1947098 0.532489 6.7126198
4.1995902 0.53345197 6.71069
4.18994 0.53349698 6.7125802
4.2278299 0.53308499 6.7009001
4.0624499 0.532215 6.7230401
4.2031398 0.53535002 6.7009201
4.1638799 0.537341 6.71347
4.19414 0.53717798 6.7018299
4.1705899 0.53961802 6.7027402
4.12989 0.54486102 6.7051702
4.0778198 0.54788899 6.7190199
4.1158099 0.54659098 6.7059999
4.1121998 0.54743803 6.7062302
4.0870299 0.55034399 6.7074199
4.0625601 0.55271101 6.7092199
4.1422901 0.56789303 6.7153602
4.1530099 0.56815797 6.7169099
4.2068 0.572519 6.6979899
4.20471 0.57417399 6.6983099
4.1641402 0.578013 6.7014699
4.1800699 0.57726198 6.69976
4.1041799 0.60176998 6.70397
4.19241 0.59174699 6.6976199
4.1715202 0.59459001 6.6992202
4.1564202 0.596645 6.70051
4.1174998 0.605892 6.6972399
4.2341099 0.59052902 6.6916099
4.2237101 0.59207702 6.6921601
4.25174 0.62165803 6.6924601
4.16678 0.64613998 6.6971598
4.1876702 0.64490402 6.69524
4.0385799 0.69215 6.7032099
4.14114 0.679546 6.69385
4.1179399 0.69059902 6.6901498
4.1774302 0.67502898 6.6915002
4.1873398 0.67400801 6.6909399
4.21175 0.67788601 6.6852598
4.2378201 0.67639297 6.67803
4.30337 0.65460998 6.6943998
4.3142099 0.65398997 6.6921902
4.3364902 0.65200299 6.6897702
4.2862802 0.70323598 6.6821499
4.2817602 0.71547002 6.6817698
4.2911 0.52078199 6.7033701
4.31394 0.52162302 6.6940999
4.2754898 0.523031 6.7041798
4.25179 0.52962297 6.7002301
4.1848302 0.534491 6.7122898
4.1594801 0.537395 6.7142901
4.1610398 0.53795302 6.7135401
4.1299701 0.54142898 6.7163501
4.1649098 0.54027998 6.70294
4.1217999 0.54285097 6.7165399
4.1314602 0.54638302 6.7053299
4.05651 0.55247802 6.7200398
4.2344098 0.56323898 6.7167101
4.1248202 0.57101101 6.7109299
4.2356 0.56801099 6.6974001
4.2207799 0.57060403 6.6977601
4.2105198 0.572918 6.6981101
4.1974602 0.57410502 6.6986499
4.03339 0.595393 6.7034302
4.0348001 0.59638202 6.7044802
4.0454402 0.59622598 6.7007699
4.0590601 0.60556602 6.7069502
4.0676098 0.60765499 6.7050099
4.2662401 0.58170003 6.6918602
4.2624202 0.582219 6.69209
4.2409 0.58514899 6.69484
4.2188601 0.588148 6.69558
4.2042799 0.59013402 6.69836
4.2907701 0.57897598 6.6896501
4.18679 0.59672803 6.6933398
4.2448201 0.58892697 6.6915498
4.2278099 0.591465 6.69203
4.2786798 0.62025201 6.69135
4.2246499 0.63997698 6.6911802
4.13346 0.680812 6.6938701
4.1621199 0.67768103 6.6925602
4.20328 0.67209101 6.6893702
4.2009301 0.67300099 6.6891298
4.20155 0.67932701 6.6858001
4.22508 0.67605102 6.6853499
4.2567801 0.66258401 6.6924
4.24932 0.67637497 6.67343
4.27842 0.659347 6.69313
4.22505 0.71673697 6.6850901
4.32024 0.65281498 6.6925502
4.32687 0.65281099 6.69101
4.2049799 0.71727002 6.6894398
4.2903199 0.71305299 6.67875
4.2923999 0.712717 6.67694
4.2010798 0.53598398 6.7013302
4.1317101 0.54133803 6.7156801
4.1050401 0.54581201 6.7163901
4.0956101 0.54683399 6.7178502
4.1195102 0.54578 6.7059302
4.0988698 0.54840499 6.70646
4.2486801 0.63409001 6.6898499
4.0548601 0.55473101 6.7097702
4.1922302 0.71927702 6.68997
4.1430898 0.577483 6.70328
4.21351 0.57191998 6.69766
4.2197099 0.57210398 6.6981001
4.1914001 0.575427 6.6992302
4.1772099 0.57754302 6.7000899
4.0493898 0.60677701 6.7052398
4.2424898 0.66506702 6.6928
4.1368899 0.60309398 6.6957102
4.1294599 0.604164 6.6964598
4.20647 0.67852098 6.6861601
4.1465998 0.60261297 6.6963401
4.2160902 0.59321201 6.6924701
4.20646 0.594643 6.69312
4.1916599 0.59684002 6.6943402
4.1863899 0.59763098 6.6940799
4.16436 0.600905 6.69558
4.1743302 0.683173 6.6869001
4.1623001 0.68489498 6.68747
4.1556602 0.68583101 6.68819
4.1514001 0.686001 6.6884799
4.2522802 0.62101197 6.68998
4.3271098 0.51485401 6.7020602
4.3269501 0.51516801 6.7019401
4.3243699 0.51537299 6.7021699
4.3222799 0.51533902 6.7027302
4.3192301 0.51545399 6.7026801
4.3215699 0.51601899 6.7027402
4.3157401 0.51643902 6.7032299
4.3123298 0.51709998 6.7038598
4.3080401 0.51683903 6.7040501
4.31113 0.517748 6.70368
4.3018699 0.51720601 6.7040501
4.3213401 0.51790899 6.6996398
4.3062201 0.51800698 6.7045498
4.30336 0.51783597 6.7046299
4.27355 0.52225298 6.7069402
4.2562199 0.52517003 6.70824
4.2250199 0.52948397 6.71035
4.1228099 0.68880302 6.6908302
4.23913 0.66817802 6.6874099
4.1966701 0.531775 6.7126002
4.2175798 0.53360099 6.6999102
4.1785202 0.53552002 6.7129998
4.20684 0.53495598 6.7006102
4.1900802 0.53710198 6.7013602
4.1680198 0.54031599 6.7028298
4.10145 0.54569298 6.7176499
4.0928702 0.549734 6.7074599
4.0517201 0.55606002 6.7101498
4.0413198 0.55653697 6.7106199
4.0283098 0.55810899 6.71101
4.14325 0.56945598 6.7160702
4.1691799 0.57192302 6.71561
4.1187901 0.5772 6.7052798
4.1354098 0.57823098 6.7052202
4.2092099 0.57262099 6.6974602
4.1786499 0.57605499 6.70086
4.1603498 0.57812399 6.7034202
4.1981502 0.57542998 6.6989298
4.0377102 0.61685199 6.7044301
4.15201 0.633443 6.6958399
4.2765999 0.61824 6.6913099
4.0479002 0.69283098 6.70082
4.1226702 0.683918 6.6946902
4.1642699 0.67903501 6.69207
4.2089 0.67173302 6.6889601
4.2005501 0.71758699 6.6895599
4.2792101 0.66340798 6.69699
4.302 0.65965599 6.6966801
4.2214398 0.71706599 6.6848602
4.2368302 0.71438497 6.6845498
4.32833 0.515885 6.7014899
4.3153501 0.517178 6.70328
4.3137999 0.51779902 6.7031002
4.29182 0.52346998 6.6951699
4.25001 0.526039 6.70858
4.2322698 0.52794099 6.7101102
4.0404201 0.70385998 6.7021899
4.18716 0.53413999 6.7122598
4.21313 0.53427303 6.7002902
4.0769601 0.68847001 6.6986699
4.1426101 0.54012501 6.7151299
4.1556301 0.54131299 6.7033901
4.1133599 0.54380602 6.7171202
4.05546 0.69213498 6.6998601
4.1384101 0.54407698 6.7046599
4.0761199 0.54814202 6.7193298
4.1204 0.54620898 6.7055802
4.2204199 0.62811297 6.6950002
4.0489302 0.58944899 6.71034
4.2259202 0.57079703 6.6978102
4.2020202 0.573421 6.6979299
4.1806002 0.57664198 6.7003698
4.0582099 0.60566801 6.7061701
4.0482402 0.615224 6.7031598
4.211 0.534944 6.7006001
4.1662302 0.53761202 6.71347
4.0826402 0.55099499 6.7079201
4.15309 0.57165098 6.7116799
4.21767 0.57244402 6.6979399
4.2105098 0.57324201 6.6978598
4.1921501 0.57532197 6.69909
4.1776299 0.57698202 6.7007198
4.0797801 0.60692602 6.70439
4.2054 0.71934098 6.6860499
4.1343298 0.63738799 6.69838
4.1518698 0.63438302 6.6971798
4.2808199 0.66915399 6.68045
4.3466802 0.51152498 6.7012
4.3427601 0.511002 6.69906
4.34622 0.51264799 6.7012
4.3418102 0.51335901 6.70154
4.33811 0.51374102 6.7020202
4.3333502 0.51460701 6.7030301
4.33074 0.51464802 6.7036099
4.3292098 0.51461399 6.7035899
4.3379502 0.51478302 6.7010999
4.3353901 0.51484102 6.7017498
4.35006 0.51607603 6.6928701
4.3464098 0.51648098 6.6930299
4.2950602 0.51845199 6.70539
4.3413601 0.51728398 6.6929698
4.33989 0.51809698 6.6926999
4.3352699 0.51819402 6.6933899
4.2928901 0.520504 6.7062702
4.2821398 0.521164 6.7072501
4.2806501 0.52167898 6.7072601
4.3207798 0.52016503 6.6942101
4.3269401 0.5205 6.6936202
4.27596 0.52277797 6.70754
4.3250299 0.521016 6.6939101
4.26337 0.52362901 6.7090502
4.30861 0.52184898 6.69521
4.3031201 0.52293098 6.6952801
4.2426901 0.52696198 6.7107501
4.28192 0.52510399 6.69699
4.2785602 0.52524298 6.6975598
4.2655902 0.52780002 6.69735
4.1740499 0.53524101 6.7154002
4.2284598 0.53226697 6.6986699
4.2055602 0.534729 6.7006798
4.1828699 0.53872102 6.7013502
4.17383 0.53923798 6.7021699
4.1270499 0.542732 6.71632
4.2864399 0.660402 6.68713
4.2667499 0.67082 6.6815801
4.2574601 0.562428 6.6935501
4.2425499 0.56669301 6.6942
4.2393198 0.56709701 6.6963
4.2309899 0.56826901 6.6968098
4.1837201 0.57577199 6.7005901
4.1284499 0.59882301 6.7042098
4.1152501 0.601134 6.7049298
4.1086702 0.60231799 6.7048402
4.15347 0.59648198 6.7019
4.2066698 0.588732 6.6984
4.18888 0.59200197 6.69942
4.1037502 0.60922199 6.6988001
4.2365298 0.584912 6.6963401
4.2298799 0.586097 6.6974802
4.1436701 0.60296202 6.6951098
4.2723398 0.58035702 6.69485
4.26864 0.581128 6.6945601
4.2773499 0.58014399 6.6943302
4.21136 0.59390199 6.6905398
4.2982502 0.57661599 6.6941199
4.23844 0.59015399 6.6900902
4.2373199 0.59113199 6.6911602
4.27072 0.586115 6.68717
4.3329401 0.57286698 6.6914902
4.1197801 0.64082301 6.69836
4.1271601 0.64451402 6.7004499
4.18819 0.63279098 6.69484
4.0304098 0.69018799 6.6984701
4.2006998 0.67228198 6.6907101
4.2660398 0.66350502 6.6866202
4.2590299 0.67168999 6.68257
4.3059802 0.65789998 6.6856098
4.3112402 0.655985 6.6863599
4.3238401 0.655038 6.68541
4.33002 0.65382999 6.6853399
4.3353901 0.65289998 6.6854401
4.3394699 0.65302098 6.68467
4.3489699 0.65165597 6.6846499
4.2802401 0.66109598 6.6873102
4.2747502 0.662808 6.6866698
4.2390199 0.67542499 6.6810198
4.3390398 0.51472902 6.7006502
4.3264699 0.51541799 6.7037601
4.3230901 0.51584601 6.7041402
4.3101501 0.51841998 6.7046399
4.3052402 0.51853299 6.7055802
4.3344898 0.51820898 6.69349
4.2885699 0.52002198 6.7062898
4.3280001 0.52002102 6.6935101
4.3172798 0.52028799 6.6949501
4.3298502 0.52060801 6.6946502
4.3171902 0.52118301 6.69455
4.2704301 0.52344102 6.70818
4.26752 0.52351803 6.70854
4.30129 0.52346897 6.6952901
4.25176 0.52606302 6.7094698
4.2267098 0.52816802 6.71314
4.2368202 0.667669 6.68853
4.2946801 0.525231 6.69596
4.2752299 0.52687401 6.6965599
4.2697902 0.52707201 6.6970201
4.2170801 0.53021598 6.7126899
4.2611399 0.52850997 6.6972799
4.2093201 0.53167897 6.7122502
4.2441702 0.53035402 6.69803
4.18536 0.53413099 6.7153802
4.2383199 0.53119701 6.6981001
4.2519999 0.53118199 6.6967602
4.1223898 0.543028 6.7171001
4.11064 0.54454303 6.71808
4.08042 0.54810297 6.7203698
4.0959501 0.54897201 6.7069998
4.0613098 0.55513 6.7079902
4.0425701 0.55651802 6.7095499
4.2085099 0.678473 6.68506
4.1969299 0.68063903 6.6854
4.2276101 0.56953299 6.6967902
4.1724401 0.57829398 6.70086
4.2052598 0.57436901 6.6988001
4.1392102 0.59686202 6.7047
4.1745801 0.593624 6.7009501
4.1213398 0.60602498 6.6969099
4.13131 0.60527003 6.6960201
4.2484798 0.58381402 6.69172
4.25811 0.58238202 6.6953502
4.2037601 0.595303 6.6919699
4.2592001 0.58767402 6.6880798
4.2533302 0.58848798 6.69204
4.3288598 0.57304603 6.6921301
4.3263898 0.573596 6.6919699
4.3351402 0.57668501 6.68261
4.1895499 0.672499 6.6921902
4.1675 0.63644499 6.6953201
4.2402902 0.62583399 6.6924
4.17207 0.67510998 6.6933198
4.13553 0.68907702 6.6887102
4.2861199 0.61914498 6.6893501
4.10461 0.69282901 6.6905398
4.2786102 0.62728798 6.6820798
4.2124701 0.71878302 6.6863599
4.25177 0.672589 6.6827898
4.19204 0.67291498 6.69173
4.1181998 0.69115502 6.6891599
4.0964999 0.68466502 6.69911
4.1434498 0.54029602 6.7157898
4.06217 0.55107301 6.72123
4.0507498 0.55588901 6.7084799
4.1986899 0.575315 6.69981
4.1602101 0.59523398 6.7020302
4.18257 0.59217501 6.70046
4.1696401 0.60004997 6.6937299
4.3515201 0.51103699 6.70362
4.3524599 0.51223201 6.7028999
4.34691 0.51261401 6.70433
4.34974 0.512793 6.7028098
4.3185 0.51616102 6.70715
4.3204799 0.51651102 6.7066698
4.2980099 0.51897597 6.7083101
4.2938399 0.51980299 6.7087202
4.2877698 0.52076203 6.7090402
4.27911 0.52194798 6.7098598
4.3453898 0.51701599 6.6932998
4.3326101 0.51799798 6.6951399
4.2595901 0.52399802 6.7122102
4.2582698 0.52410197 6.71243
4.3480301 0.51727903 6.6925998
4.26088 0.52448499 6.7115798
4.2534499 0.52506697 6.7126298
4.33778 0.51851797 6.6928201
4.3355999 0.51869202 6.69313
4.3261499 0.51989698 6.6929698
4.2286601 0.52885997 6.7130198
4.2209601 0.53015 6.71315
4.2143502 0.53071803 6.71422
4.2013402 0.532498 6.7148099
4.1939702 0.53382403 6.7144198
4.2567701 0.52859902 6.6973
4.1190801 0.54286498 6.71873
4.1800299 0.53935701 6.7017698
4.1721301 0.540115 6.7021399
4.1676002 0.54219502 6.6994901
4.12534 0.54648298 6.7047
4.0727901 0.55278498 6.7079701
4.1490698 0.56778902 6.7153902
4.2261 0.556759 6.7123699
4.1468801 0.56904799 6.71592
4.1112599 0.57832801 6.7058902
4.1216502 0.59942102 6.70473
4.13554 0.59759599 6.7042398
4.14711 0.59623098 6.70366
4.0847702 0.61166501 6.6992998
4.17522 0.59223503 6.7024899
4.1722598 0.592951 6.7020702
4.1093502 0.60872 6.6983299
4.2131901 0.58770198 6.70052
4.1758099 0.599666 6.6928101
4.1872501 0.59800899 6.6925201
4.1995001 0.59605998 6.6925001
4.20891 0.59473097 6.6926098
4.1910901 0.71884203 6.6893802
4.1367602 0.63375503 6.7009902
4.1517901 0.63925099 6.6946602
4.0311399 0.68246502 6.7000799
4.0318499 0.68410599 6.6989899
4.1946802 0.63245201 6.6946201
4.22856 0.62686801 6.6929998
4.2491298 0.62485701 6.6893401
4.1259198 0.570553 6.7116299
4.13237 0.69059098 6.6874099
4.1796598 0.67317402 6.6929598
4.2026801 0.67051798 6.6912498
4.2175298 0.67871499 6.6834698
4.2263098 0.67738402 6.6830602
4.2544298 0.66191202 6.6907501
4.2634101 0.66182101 6.6891198
4.2582102 0.67600602 6.6771302
4.2909999 0.65788698 6.6874599
4.2946801 0.65680897 6.6880398
4.2789602 0.67029101 6.6796298
4.2982998 0.65741301 6.6874399
4.3026299 0.65589702 6.6880798
4.32586 0.65397602 6.6858501
4.22997 0.71276599 6.6875601
4.3395801 0.65126699 6.6858802
4.2034898 0.72856498 6.70503
4.25316 0.58915901 6.6872001
4.2858801 0.57723898 6.6978202
4.2220702 0.59406698 6.68854
4.2494998 0.58208001 6.6983399
4.1798401 0.59893101 6.6912899
4.2898598 0.71837997 6.6751399
4.3203301 0.51604003 6.7068701
4.3284502 0.51595998 6.7052999
4.3007102 0.518812 6.7083001
4.25526 0.52549899 6.7114701
4.23946 0.52739298 6.7132602
4.3291302 0.52016699 6.6922698
4.3119998 0.52208197 6.6932101
4.2835002 0.52561301 6.69454
4.1346998 0.541426 6.7170801
4.1233001 0.54248297 6.7184901
4.2177601 0.53416699 6.6978598
4.1567602 0.54246497 6.70293
4.2314 0.55601799 6.7104998
4.3171902 0.65408897 6.68677
4.3140101 0.65486503 6.6865702
4.1178398 0.57724398 6.7059202
4.28193 0.67002898 6.67944
4.2712598 0.672777 6.6777701
4.0692301 0.61360699 6.7010798
4.2774501 0.65946501 6.6891599
4.2705698 0.66059101 6.6891899
4.2562699 0.56490499 6.6905499
4.2330999 0.67845201 6.6791801
4.2086601 0.57420701 6.6986799
4.2321901 0.66696501 6.6891899
4.2005501 0.68069798 6.6846299
4.2251501 0.66743302 6.6898298
4.1145401 0.600811 6.7058301
4.0482602 0.61667103 6.7027798
4.1617398 0.68850601 6.6834698
4.2568798 0.67545998 6.6770301
4.1935802 0.59749198 6.6925802
4.1670098 0.60056299 6.6936798
4.1804199 0.68399602 6.6851301
4.0904298 0.55196601 6.70509
4.1020098 0.54881901 6.7061801
4.2446499 0.66413099 6.6908202
4.2255502 0.571899 6.6974902
4.2151699 0.572914 6.6989698
4.2375798 0.67796701 6.67835
4.2382698 0.715002 6.6851902
4.1518302 0.67843503 6.6940598
4.0919299 0.52698398 6.7167802
4.3482599 0.51315498 6.7041898
4.3422999 0.51416999 6.70468
4.2831202 0.521281 6.7086601
4.2747202 0.52208298 6.70927
4.3378 0.52003199 6.6939101
4.3325801 0.52060801 6.6942301
4.3105898 0.523027 6.6947098
4.2876701 0.52555698 6.6961598
4.2817702 0.52621001 6.69662
4.2676201 0.527767 6.6970401
4.1654 0.54081202 6.7035599
4.1199398 0.5711 6.7093801
4.0386 0.61164898 6.7089901
4.0843401 0.60583502 6.7051501
4.0419102 0.61555099 6.7041502
4.1403198 0.59811699 6.7017598
4.10004 0.60914701 6.6997199
4.1760898 0.59424502 6.6992798
4.1980901 0.59110302 6.6977301
4.20505 0.59042603 6.6972799
4.1806898 0.59810102 6.6947899
4.2072802 0.59359503 6.6932001
4.2750001 0.62715602 6.6903
4.0276198 0.67440802 6.6996398
4.0324502 0.68541199 6.7003999
4.1974802 0.631118 6.6944499
4.2136898 0.63028097 6.6934099
4.2195601 0.629421 6.6929798
4.0328798 0.695274 6.69978
4.2381301 0.62531698 6.69138
4.2308602 0.627774 6.6921201
4.2786598 0.61835599 6.6879401
4.2737198 0.61993498 6.6889601
4.1328301 0.68178499 6.6946101
4.2728 0.62752998 6.69173
4.1390901 0.68681502 6.68996
4.2823801 0.66298598 6.68431
4.19875 0.72072399 6.6872702
4.20894 0.71828598 6.6867399
4.3268499 0.65713203 6.6813202
4.2392101 0.71469599 6.6853099
4.08496 0.69390899 6.6932402
4.0749798 0.69591302 6.69415
4.2438998 0.66792101 6.6867199
4.2593498 0.623456 6.68893
4.2905402 0.52057499 6.7082
4.2793102 0.52164602 6.7089801
4.3200202 0.520832 6.69416
4.1127801 0.544011 6.7183499
4.09271 0.54619002 6.7197599
4.3344998 0.52039701 6.69419
4.3176999 0.522241 6.6940699
4.1502399 0.56565899 6.7143698
4.1297998 0.56924999 6.7122302
4.1705799 0.57391 6.7189798
4.19554 0.57191497 6.7161999
4.1339698 0.59846598 6.7018399
4.13449 0.60355598 6.6977501
4.2126899 0.58860099 6.69664
4.2236199 0.58784097 6.6960802
4.24544 0.58524698 6.6943598
4.0366402 0.69581097 6.6989598
4.2871799 0.66168398 6.6841898
4.1981301 0.67922097 6.6866002
4.1723099 0.68156099 6.68891
4.1595302 0.67833602 6.6932101
4.2325702 0.66882902 6.6884098
4.12851 0.68806499 6.6904898
4.22964 0.67457598 6.6845999
4.0423899 0.594181 6.7083998
4.0893602 0.68582702 6.6981502
4.2659302 0.66359001 6.68573
4.2617002 0.582932 6.6930399
4.1592798 0.60111499 6.6961002
4.1051002 0.60800701 6.6992998
4.1217198 0.60118699 6.7027702
4.1035399 0.54501301 6.7188601
4.1948199 0.538279 6.7014499
4.0443802 0.59122699 6.7094102
4.1482401 0.64245898 6.7080202
4.0342002 0.69141603 6.70083
4.1944699 0.63293499 6.6942501
4.0783401 0.52944303 6.7161198
4.20468 0.63059098 6.6929698
4.14856 0.54403597 6.7035799
4.1261301 0.54751498 6.7045898
4.0464501 0.60787201 6.7073002
4.2326798 0.56305099 6.7142301
4.2090402 0.56955397 6.7163801
4.2069802 0.57001501 6.7167501
4.0395699 0.61694998 6.7039599
4.0669198 0.61242801 6.7048702
4.1210999 0.64161599 6.6993299
4.1417799 0.59803301 6.7013502
4.1149101 0.60538101 6.70119
4.1773901 0.59442401 6.69803
4.1854401 0.59332901 6.6974602
4.1994801 0.59164 6.6963401
4.2069802 0.59056997 6.69596
4.21521 0.58931899 6.69525
4.2256899 0.58834398 6.6946602
4.21876 0.59404802 6.6926298
4.2856102 0.57980102 6.69103
4.03614 0.664823 6.70608
4.18223 0.63269901 6.6941099
4.18713 0.63272101 6.6960201
4.2395701 0.62667102 6.6908698
4.1079502 0.68212402 6.7056499
4.2253399 0.62682301 6.6904702
4.1426702 0.68075597 6.6934099
4.2857499 0.62083203 6.6857901
4.1791902 0.67662698 6.6910701
4.1793599 0.68254101 6.6873498
4.2200198 0.67028099 6.6887102
4.2477498 0.66798598 6.6858802
4.21667 0.62959802 6.6925101
4.2254 0.62864101 6.6919298
4.26017 0.62271798 6.6872802
4.2965698 0.70659602 6.6806998
4.2879801 0.70553702 6.6806998
4.2284899 0.59129399 6.69139
4.0679998 0.53070301 6.7206001
4.0642099 0.531111 6.7207799
4.13659 0.68806797 6.6896601
4.1865301 0.59707701 6.6937599
4.1782098 0.681346 6.6880002
4.1426601 0.56824601 6.7063198
4.1561699 0.57425302 6.7188201
4.0616202 0.60149801 6.7077098
4.2471399 0.66628802 6.6872802
4.21912 0.56840497 6.7131901
4.1457 0.63585502 6.69839
4.0858402 0.69254202 6.6946001
4.09517 0.69234103 6.6931801
4.2464299 0.58512801 6.6938701
4.1581402 0.67859602 6.69244
4.11901 0.57183301 6.7088599
4.2278299 0.716497 6.68507
4.1686802 0.51761699 6.7173901
4.14639 0.52034599 6.71627
4.1364799 0.52156198 6.7160501
4.12468 0.52301198 6.7160001
4.1001 0.52602702 6.7153502
4.01406 0.53662097 6.7171898
4.0079598 0.53739101 6.7191901
4.01297 0.54491103 6.7272
4.0165 0.55755198 6.7226801
4.2062201 0.53082198 6.7136898
4.0150099 0.56442302 6.7133098
4.2445998 0.53258902 6.6967001
4.1403899 0.56777799 6.7035499
4.1208801 0.57210797 6.7037501
4.1385698 0.57607102 6.71766
4.0529599 0.59891999 6.7053399
4.1556501 0.57463098 6.7202201
4.0295401 0.618527 6.7069602
4.2066898 0.56950098 6.7190199
4.0501099 0.61655301 6.7028999
4.2516298 0.56602299 6.6973701
4.1517 0.59746403 6.7000499
4.1901002 0.59236199 6.6974201
4.2409801 0.58473903 6.6938801
4.2357998 0.58617699 6.6947999
4.2687802 0.58196801 6.6921802
4.2829599 0.579404 6.6908598
4.2785501 0.58074898 6.6914902
4.2647901 0.58699799 6.6898198
4.1277699 0.63725603 6.6999502
4.1521001 0.63342297 6.6968498
4.3025599 0.582066 6.6869798
4.1686602 0.63305098 6.6990099
4.1763401 0.63655901 6.6953301
4.2226601 0.62803799 6.6915498
4.21527 0.63071102 6.6925902
4.1642098 0.675946 6.6936202
4.1865702 0.67362398 6.6914301
4.2066898 0.67144799 6.6901999
4.1948299 0.68105 6.6858802
4.2186399 0.669828 6.6897502
4.2286701 0.66758603 6.6894302
4.24616 0.673832 6.6835999
4.2768698 0.66747099 6.6833401
4.2894402 0.66588098 6.6824698
4.2962298 0.66434401 6.68257
4.32549 0.65690899 6.6816502
4.34723 0.65567797 6.6787701
4.04952 0.60919303 6.7059002
4.1940398 0.56408602 6.7007799
4.28896 0.70507097 6.6805501
4.32515 0.65943098 6.68188
4.3140898 0.66153997 6.6817498
4.2092299 0.71933401 6.6861801
4.30479 0.66332901 6.6820202
4.1992798 0.72025698 6.6865702
4.1887598 0.72037101 6.68854
4.28372 0.66175997 6.6840701
4.2795601 0.66229498 6.68501
4.2641902 0.66381401 6.68606
4.2473302 0.67067498 6.6856098
4.2579298 0.66446698 6.6863198
4.2418799 0.67228901 6.6855798
4.2161298 0.67812198 6.6845102
4.1817198 0.68283403 6.6864901
4.1526999 0.677701 6.6950002
4.0525298 0.589086 6.7105699
4.1191602 0.68119597 6.6971598
4.1026301 0.68277001 6.6993999
4.2526398 0.62051302 6.6905599
4.09622 0.52650303 6.7153301
4.0851002 0.52890903 6.717
4.1912098 0.63366699 6.6941199
4.1890602 0.63288701 6.6951299
4.0354099 0.68858999 6.7006798
4.1553898 0.635768 6.6981201
4.2523198 0.584176 6.69346
4.07864 0.55383801 6.7077098
4.1949902 0.59633899 6.6933899
4.1613698 0.60158402 6.6955099
4.1657701 0.60035998 6.6950102
4.1210399 0.60078198 6.70297
4.13833 0.59852201 6.7019701
4.0929098 0.61075598 6.6994901
4.0984902 0.60928702 6.6989102
4.2437301 0.56836998 6.6968999
4.0433102 0.61693001 6.7032499
4.2188702 0.59344602 6.6921601
4.2469301 0.584831 6.6938901
4.1445098 0.637137 6.6981902
4.0384202 0.70116401 6.7006202
4.04322 0.71025699 6.7095699
4.15729 0.68063998 6.69207
4.1725402 0.678698 6.6914902
4.1902099 0.676247 6.6900001
4.2077599 0.67373902 6.6887598
4.1614199 0.68342 6.6876302
4.1866002 0.68024999 6.6865702
4.0332599 0.62522298 6.70926
4.1434999 0.644858 6.6958399
4.1357198 0.64555597 6.69699
4.1473598 0.64528197 6.6957102
4.1598501 0.64500499 6.6958799
4.2053699 0.642277 6.6926799
4.1691098 0.64558297 6.6950698
4.2311101 0.670775 6.6861801
4.17204 0.68225902 6.68647
4.1925402 0.67910498 6.6854701
4.2003198 0.67838001 6.68502
4.2423301 0.67213899 6.6835399
4.2362599 0.67401099 6.68677
4.0529199 0.69412798 6.69947
4.0992098 0.68821102 6.6958599
4.1124201 0.60622698 6.6987
4.0922499 0.60625702 6.7020102
4.0893102 0.60624999 6.7024202
4.1078601 0.60679001 6.6988001
4.1015501 0.60743397 6.6995301
4.0813999 0.60754299 6.70297
4.0927801 0.60865402 6.6997199
4.07096 0.60888797 6.7037802
4.1823301 0.67689502 6.6910501
4.08283 0.61000597 6.7004399
4.0599298 0.61290401 6.70188
4.2537298 0.63259602 6.6897502
4.2518902 0.63269699 6.6894999
4.2465501 0.63420999 6.6905298
4.2199101 0.64099598 6.6923399
4.2130198 0.64166498 6.6933899
4.18468 0.67646199 6.6909099
4.10461 0.68726301 6.6966
4.1648102 0.67926401 6.6926398
4.1991301 0.67458099 6.6897302
4.1984801 0.67470002 6.6900001
4.2125201 0.67283797 6.6886902
4.1561399 0.684421 6.6883602
4.2375698 0.66951603 6.6863098
4.2347298 0.67006099 6.6866498
4.17066 0.68250799 6.6874099
4.1969199 0.67902899 6.6861701
4.2114601 0.67692101 6.68537
4.2616901 0.670156 6.6824298
4.24613 0.66675901 6.6706901
4.2523599 0.63333303 6.6911702
4.2424002 0.63630003 6.6924901
4.2380099 0.63668901 6.6931701
4.2295899 0.639081 6.6935
4.1356401 0.63732702 6.70364
4.1371698 0.63653201 6.70362
4.2542601 0.63329899 6.6922798
4.0849199 0.61024803 6.7017698
4.0679998 0.61239898 6.7030001
4.1822801 0.68106699 6.6881199
4.0606599 0.69712299 6.6963601
4.2062201 0.67794198 6.68678
4.1511598 0.68534797 6.6900601
4.0587401 0.69313699 6.7010102
4.0957298 0.68782097 6.6986399
4.1165099 0.68517798 6.6968198
4.13871 0.68219203 6.6953702
4.2161899 0.67211801 6.6901898
4.1012902 0.60822803 6.7002902
4.0528402 0.60886902 6.7058201
4.22118 0.67118102 6.6894999
4.22365 0.670717 6.68928
4.0781202 0.60798699 6.7061501
4.0781002 0.68984002 6.70017
4.0457702 0.61550701 6.7043099
4.2344499 0.71267098 6.68819
4.1027899 0.68660301 6.69806
4.11903 0.60638601 6.6986299
4.0676599 0.613029 6.70225
4.10501 0.60821903 6.6997499
4.1483402 0.68048698 6.6947398
4.18011 0.64529401 6.6947999
4.2285199 0.66979599 6.6890898
4.2315102 0.66922998 6.6891098
4.11414 0.68464398 6.6972599
4.23946 0.66773099 6.68854
4.1988301 0.64356798 6.69382
4.2330499 0.674739 6.6851401
4.1921501 0.71907002 6.68957
4.1990099 0.71791202 6.6889701
4.0438399 0.60781002 6.7086501
4.0931902 0.52806199 6.7171602
4.1233802 0.52412802 6.7146001
4.1869898 0.515347 6.7105098
4.1699901 0.51817602 6.7126598
4.19912 0.51410002 6.7108002
4.01546 0.55870098 6.7238598
4.0775199 0.54755503 6.7242999
4.2217302 0.52908498 6.7133999
4.23139 0.527843 6.7128601
4.0562201 0.58939999 6.7089901
4.1454301 0.569013 6.7042899
4.1259198 0.57386899 6.7124901
4.16959 0.56831199 6.70257
4.0599899 0.59928501 6.7076502
4.0623698 0.601255 6.7079
4.1529102 0.57353902 6.7210999
4.22999 0.560184 6.6981902
4.07307 0.61324501 6.7016401
4.1182399 0.60152298 6.7025199
4.2321801 0.56670099 6.71275
4.2304502 0.56704998 6.7135501
4.1480899 0.59745097 6.7007298
4.1203499 0.60718 6.6982899
4.16644 0.59547502 6.6992302
4.2261701 0.58757502 6.6951499
4.0370302 0.65258902 6.7051401
4.2383299 0.58552998 6.6946301
4.2267299 0.591407 6.69311
4.2627602 0.58237797 6.6928301
4.27563 0.58611399 6.6890702
4.0384002 0.676278 6.7054901
4.1577401 0.63578397 6.6966701
4.2976999 0.58265197 6.6882501
4.04141 0.69211698 6.7010598
4.3369699 0.57303399 6.6877799
4.1954398 0.63211101 6.6932402
4.3288698 0.57795697 6.6867499
4.2119498 0.629538 6.6915898
4.2014298 0.63314199 6.6939702
4.3462601 0.57539302 6.6858101
4.2191701 0.62989098 6.6922598
4.3495402 0.574947 6.6855602
4.2315698 0.627473 6.6908202
4.3536401 0.57519102 6.6849999
4.24999 0.62229198 6.6916699
4.27 0.62046099 6.6883898
4.2004499 0.68036997 6.6861401
4.2216101 0.66782099 6.6905899
4.23773 0.67343199 6.6857901
4.2692699 0.66472799 6.6842399
4.2237201 0.71701097 6.6849098
4.3542399 0.65611798 6.6793699
4.2914 0.70589298 6.6791701
4.1507101 0.572505 6.7186699
4.2403698 0.714827 6.6842399
4.2103801 0.719733 6.6860399
4.3056302 0.66090697 6.6813898
4.2965002 0.66463101 6.6823602
4.1996899 0.72098798 6.6866102
4.28719 0.66643697 6.6821799
4.2913699 0.66196698 6.6829
4.2665801 0.66477901 6.6844401
4.25598 0.66594398 6.6856499
4.2333398 0.66647297 6.6893301
4.0546498 0.61583102 6.7027798
4.1592398 0.67572802 6.6940098
4.2793198 0.61884701 6.6873398
4.0441899 0.595029 6.7102499
4.0128002 0.54929298 6.72717
4.0404401 0.70095003 6.70187
4.02356 0.556104 6.7212
4.0163698 0.56958097 6.7133298
4.3057499 0.58159298 6.6875901
4.2944698 0.58402503 6.68817
4.2901101 0.58365703 6.6884198
4.2659798 0.58614397 6.69067
4.0374098 0.66698003 6.7049198
4.2375302 0.59140497 6.6912098
4.2565699 0.58362299 6.6929498
4.2167301 0.58846998 6.69593
4.18747 0.592305 6.6979599
4.1495399 0.63325298 6.6975298
4.3155699 0.66126001 6.6813502
4.1880102 0.63353503 6.6943102
4.2604399 0.62329 6.6895099
4.0207801 0.556925 6.7235098
4.2305002 0.58717102 6.6946101
4.1777601 0.63316703 6.6975899
4.03863 0.67528099 6.70368
4.0318499 0.55611801 6.7203798
4.02597 0.55859601 6.7198501
4.1282701 0.53999001 6.7214899
4.1574798 0.53677499 6.7193499
4.1702299 0.53509802 6.7174802
4.0213399 0.56920099 6.71141
4.0205498 0.57191002 6.7116899
4.1908698 0.53361702 6.7140398
4.2236099 0.52872401 6.7133598
4.2358599 0.52680999 6.7122698
4.24405 0.52687001 6.7097802
4.2636499 0.52358001 6.7104998
4.2996001 0.51838702 6.70997
4.2975202 0.51894599 6.7098598
4.3093901 0.51758599 6.70825
4.1479301 0.56994802 6.7033901
4.0539899 0.59520298 6.70929
4.1911702 0.56468201 6.7005901
4.1883302 0.56542701 6.7010102
4.1464701 0.57365203 6.7192898
4.0397801 0.60726702 6.7102599
4.1900501 0.56596798 6.7010999
4.03192 0.61426902 6.7084799
4.2178102 0.56226802 6.6989899
4.0327802 0.61748397 6.7060099
4.2136402 0.56845599 6.7190499
4.1305599 0.603971 6.7002501
4.1809402 0.59337902 6.6985698
4.1726999 0.60093302 6.6954598
4.2258401 0.59151399 6.6936798
4.2600002 0.583166 6.69275
4.2439599 0.589522 6.6924701
4.03578 0.66922897 6.7051301
4.2734199 0.58147597 6.69169
4.1247602 0.63752401 6.69979
4.2817302 0.58045298 6.6911502
4.3236098 0.57519197 6.6883798
4.1909699 0.63308603 6.6939402
4.3343101 0.57366198 6.6878099
4.0383 0.698259 6.7024798
4.3273301 0.57794398 6.6873798
4.1974101 0.63189399 6.6932602
4.2183199 0.62975901 6.6918402
4.2343602 0.62707502 6.6901102
4.2280798 0.62924802 6.6916599
4.2550302 0.62093002 6.6904802
4.2447701 0.62625998 6.6896
4.2662702 0.622513 6.6888599
4.2092299 0.67001998 6.6905198
4.2453399 0.66763598 6.6859698
4.2977901 0.66124803 6.6827598
4.3089199 0.66062301 6.68155
4.2242498 0.71769899 6.6849098
4.2853298 0.70669001 6.67975
4.2961702 0.71008599 6.67802
4.28512 0.70725697 6.6811199
4.3536901 0.656425 6.67942
4.3306499 0.65692699 6.6802502
4.2962599 0.66384798 6.6824498
4.24932 0.67168897 6.6852398
4.06319 0.60767102 6.70786
4.0497198 0.59075302 6.7109799
4.03723 0.68491399 6.70222
4.2743502 0.66803098 6.68367
4.1592999 0.59967202 6.6986899
4.2259698 0.67056203 6.6869001
4.1262102 0.63848001 6.6995101
4.1304798 0.63868701 6.6982999
4.0191302 0.566356 6.7134199
4.1471801 0.53815299 6.7182798
4.1833601 0.53402299 6.7150002
4.1618199 0.56925303 6.7028298
4.04459 0.605165 6.70889
4.0360999 0.68757403 6.7024398
4.03756 0.69307101 6.7003498
4.1544199 0.645594 6.6954598
4.2073798 0.63150299 6.6925998
4.2135301 0.63043398 6.69171
4.1923199 0.64374602 6.69309
4.28161 0.61897701 6.6872702
4.2153201 0.71896303 6.6851702
4.3288898 0.65944701 6.6788902
4.2424102 0.71627998 6.68328
4.2937298 0.713413 6.6775799
4.21803 0.56087899 6.6979799
4.2286301 0.67117202 6.6861601
4.2023201 0.56421298 6.7000098
4.1516399 0.633448 6.6967201
4.1428199 0.638201 6.6975198
4.16855 0.63637602 6.69592
4.05863 0.59184903 6.7080402
4.12114 0.54174203 6.72054
4.2467399 0.58436197 6.6940498
4.1955299 0.633138 6.6935
4.22824 0.59049201 6.6941099
4.33745 0.57296997 6.6872702
4.20154 0.53123599 6.7144599
4.2552099 0.52422398 6.7115798
4.1440701 0.57185298 6.7058201
4.3490601 0.51311398 6.7027302
4.04497 0.60846198 6.7087202
4.2306499 0.56111002 6.6965699
4.1724401 0.59886301 6.6968699
4.2366199 0.58605301 6.6942601
4.2589502 0.58816999 6.6911302
4.2909002 0.57920402 6.6907101
4.1725998 0.63578099 6.6953802
4.32863 0.573901 6.6877298
4.20153 0.63312203 6.6934099
4.2156501 0.63113099 6.6921101
4.2192402 0.63085198 6.6919098
4.1392498 0.63799202 6.69766
4.2802701 0.58032298 6.6913199
4.2554798 0.58332199 6.6933198
4.2392902 0.71539199 6.6834798
4.0215402 0.57086301 6.7115402
4.3481598 0.57583898 6.6867599
4.0452499 0.59204102 6.7097001
4.3391399 0.514615 6.7030602
4.1491699 0.56983 6.7028699
4.1947799 0.56625903 6.70117
4.0302401 0.61782801 6.7062402
4.2191 0.56224602 6.6988401
4.0355401 0.68779898 6.70332
4.3351698 0.57305199 6.6872902
4.2038002 0.63129401 6.6921601
4.2042599 0.72101903 6.6862001
4.1262202 0.53975803 6.7224102
4.02035 0.57196301 6.7129598
4.1442599 0.53870898 6.71773
4.1343398 0.57392699 6.7161198
4.06253 0.59879398 6.7074599
4.0441799 0.605407 6.70965
4.2110901 0.58938998 6.6961598
4.2023902 0.59700698 6.6937699
4.1319098 0.63903201 6.70576
4.1552801 0.63514698 6.69591
4.1589499 0.64617401 6.6955099
4.2555499 0.67139798 6.6842499
4.2153502 0.71881402 6.68471
4.2923398 0.704723 6.6799202
4.21422 0.56311798 6.6993399
4.1371398 0.63833499 6.6975899
4.0366902 0.68343401 6.7028599
4.24505 0.67295402 6.6852298
4.15587 0.635746 6.6972699
4.2471099 0.62433499 6.68923
4.05933 0.59205401 6.7076302
4.1427898 0.56910598 6.7037702
4.1844301 0.56546903 6.7002802
4.15201 0.57080299 6.7030702
4.2339902 0.62891102 6.6910801
4.2686901 0.62186903 6.6888299
4.2030702 0.721039 6.6859999
4.19315 0.51415998 6.7139201
4.1520801 0.53744602 6.7174201
4.2245202 0.59580201 6.6873899
4.1327901 0.579009 6.7037601
4.1973701 0.56511497 6.7001901
4.1480598 0.58095998 6.7028999
4.3576498 0.51605499 6.6919999
4.2262998 0.56149501 6.6987901
4.0370302 0.67362398 6.7034798
4.12815 0.63875401 6.6984401
4.2003002 0.63296199 6.6932201
4.19662 0.643031 6.6928802
4.2580099 0.62118202 6.6897898
4.1909099 0.63350099 6.69346
4.1655202 0.64643699 6.6954398
4.1462102 0.56937099 6.7034502
4.1723199 0.64611399 6.6949201
4.2725601 0.62109703 6.68856
4.0546999 0.58881301 6.7093401
4.0377402 0.65846097 6.7049999
4.2031398 0.72090799 6.6859798
4.1195798 0.57268298 6.70539
4.0373502 0.67508698 6.70257
4.2193198 0.53839302 6.7016602
4.2018499 0.563766 6.6998801
4.1231198 0.63881201 6.7005
4.2554302 0.59033102 6.6901698
4.1961999 0.644458 6.6936402
4.23032 0.629592 6.6914201
4.25526 0.62015003 6.6901498
4.2414198 0.71554202 6.6834302
4.2034502 0.72116101 6.6862302
4.2927299 0.70485097 6.6800499
4.1550202 0.636154 6.6977501
4.21843 0.71952301 6.6853499
4.2019701 0.54744101 6.70012
4.2262402 0.54246902 6.6999502
4.1676698 0.57985699 6.7013001
4.1261401 0.63882703 6.69871
4.2254801 0.68054599 6.6872401
4.1039901 0.60786003 6.6995401
4.1343002 0.64532298 6.6993899
4.25174 0.63335001 6.6901002
4.2263498 0.63929999 6.6925902
4.2427702 0.66918802 6.6858401
4.2728 0.619452 6.69064
4.1822 0.53587002 6.7140198
4.1409998 0.54235798 6.7135901
4.1216402 0.578457 6.7055101
4.1922402 0.57639599 6.7002602
4.1856499 0.57676297 6.7009902
4.1701198 0.57833099 6.70259
4.0430799 0.53401798 6.7241402
4.0573502 0.55402201 6.7109299
4.2010698 0.535559 6.70192
4.1827898 0.53833801 6.7028999
4.1303401 0.54314601 6.71701
4.2157698 0.57277399 6.6995301
4.1795602 0.53635699 6.7146802
4.15873 0.54140699 6.7045102
4.1453099 0.54341799 6.7053099
4.13376 0.54500699 6.7059798
4.1318102 0.544976 6.7062402
4.1202502 0.54665297 6.7066698
4.07094 0.55325198 6.7096601
4.1378999 0.57018602 6.7157502
4.2080898 0.53560901 6.7020798
4.1320901 0.54569298 6.7064099
4.2048502 0.535927 6.70228
4.1961198 0.537 6.7027798
4.1883302 0.53817499 6.7030702
4.17943 0.539428 6.70362
4.1667399 0.54120201 6.70437
4.1501999 0.54361701 6.7051601
4.0981798 0.54986799 6.7085299
4.2199402 0.55768698 6.7150998
4.2181401 0.55773997 6.7156
4.0945601 0.55054498 6.7087002
4.2179999 0.571585 6.7005901
4.1949601 0.67499501 6.69169
4.0587502 0.61390102 6.704
4.1482401 0.68545902 6.69098
4.1754799 0.539801 6.7037802
4.2074099 0.67317998 6.6908698
4.1088099 0.60737401 6.7002301
4.1560998 0.68424499 6.6905599
4.1638398 0.68299103 6.6903601
4.19836 0.67888802 6.6877499
4.1326499 0.57157099 6.7145
4.12568 0.60133702 6.7037902
4.0679402 0.612867 6.7031498
4.06882 0.60895401 6.7072601
4.21735 0.672041 6.6902499
4.20505 0.53647703 6.7023201
4.2009602 0.53673297 6.7024398
4.1599798 0.54213399 6.70473
4.1157999 0.544828 6.71912
4.0976601 0.54698497 6.7201099
4.2115102 0.67289299 6.69065
4.0781398 0.55262202 6.7097101
4.06042 0.55488002 6.7108498
4.1566501 0.67998999 6.6943798
4.1188102 0.68928701 6.6929898
4.2137799 0.58977598 6.69771
4.2539902 0.562594 6.6981502
4.0872798 0.69315797 6.6950998
4.2235498 0.57189399 6.6996102
4.22399 0.57125801 6.6994801
4.05439 0.55563301 6.71099
4.1747499 0.53681999 6.71591
4.0710402 0.53032798 6.7216501
4.1693301 0.53759599 6.7162199
4.1603699 0.53877199 6.71666
4.1536899 0.53962898 6.7172599
4.1255102 0.54329997 6.7189598
4.0850701 0.54824603 6.7217398
4.1035399 0.54983002 6.70749
4.2855401 0.70721698 6.6831102
4.2297802 0.56989199 6.6995101
4.1698699 0.59988701 6.69625
4.1270299 0.57063597 6.7121501
4.24471 0.565938 6.6981101
4.1905298 0.67531902 6.6919098
4.23528 0.56906301 6.69877
4.2106199 0.590056 6.6977501
4.2066898 0.59041798 6.69803
4.0676599 0.55472398 6.70924
4.1876702 0.53916103 6.7026601
4.0387802 0.55807102 6.7115002
4.2589002 0.587897 6.69172
4.0701499 0.55077899 6.7220302
4.18501 0.59825897 6.69521
4.1400499 0.54561198 6.70436
4.17241 0.67755198 6.6932702
4.17658 0.59916103 6.6956902
4.2162299 0.67136002 6.6904898
4.13024 0.68847001 6.6918302
4.12114 0.684398 6.6964998
4.1062999 0.68606198 6.6977
4.0578499 0.61008698 6.7079501
4.0787501 0.68976903 6.6995301
4.0969501 0.68737602 6.69838
4.1929402 0.68072999 6.6875901
4.1577501 0.60201001 6.6968298
4.06423 0.69644099 6.6996298
4.1347699 0.63814199 6.6999798
4.1895299 0.59777403 6.6949301
4.0949798 0.69370103 6.69381
4.1254001 0.68319798 6.69625
4.0469899 0.59152299 6.71141
4.2389202 0.57109398 6.6972799
4.2583299 0.56248301 6.6975799
4.1494999 0.539783 6.7218499
4.0571599 0.69135797 6.7024298
4.1581302 0.57236898 6.7195601
4.04459 0.603392 6.7104502
4.06457 0.69049603 6.7037802
4.0599499 0.599096 6.7089701
4.0451899 0.59451699 6.7112598
4.2051001 0.71930802 6.6862202
4.1973901 0.72123802 6.6872001
4.21348 0.71921498 6.6860299
4.2195802 0.71797198 6.6848898
4.0801101 0.54825097 6.72399
4.0805402 0.548226 6.7231398
4.01543 0.54769498 6.7267299
4.0311799 0.55490398 6.7183199
4.23206 0.591865 6.6923599
4.04877 0.60012901 6.7315402
4.21594 0.56835401 6.71948
4.2701402 0.58604699 6.6912899
4.2796798 0.58471698 6.6908102
4.2887802 0.58350098 6.6902499
4.12989 0.68168402 6.6957102
4.1729002 0.67478299 6.6935401
4.1655598 0.67672497 6.6937099
4.27806 0.58563501 6.6898799
4.2431998 0.59031701 6.6917901
4.1118498 0.602139 6.7045298
4.0997701 0.68400598 6.6993499
4.0907602 0.68676102 6.6983299
4.0169001 0.53602302 6.7154899
4.0137901 0.53643602 6.7197099
4.0684099 0.611835 6.7056899
4.1855698 0.59307802 6.69909
4.02634 0.556665 6.7231498
4.0208998 0.55755502 6.7242799
4.1503601 0.57312 6.7203398
4.0232701 0.60786003 6.7113099
4.3372998 0.57733297 6.6883798
4.09724 0.603508 6.7059002
4.1616998 0.59536898 6.7010999
4.17342 0.59442598 6.6997299
4.1999102 0.59098601 6.6982098
4.2804098 0.580872 6.6925998
4.2509799 0.622181 6.6918502
4.1359301 0.68883598 6.69139
4.3361602 0.65904701 6.6813002
4.0201001 0.55652398 6.7237601
4.0220098 0.55621302 6.7234101
4.3507099 0.65716702 6.6808
4.1257601 0.52393299 6.7181602
4.0295701 0.53315502 6.7106299
4.17099 0.516644 6.7145801
4.1476598 0.52082002 6.7167902
4.1159201 0.52533197 6.7188601
4.01898 0.568501 6.7139502
4.1870499 0.67472601 6.69173
4.0328698 0.614124 6.70929
4.0747299 0.60698903 6.7073002
4.05092 0.61570501 6.7045102
4.1371398 0.60489202 6.6982002
4.14428 0.60399503 6.6979198
4.0609698 0.604976 6.7096701
4.1604199 0.68572301 6.6898899
4.2327299 0.67092502 6.6898799
4.2392101 0.67090702 6.6887102
4.3219099 0.65806699 6.6831002
4.14816 0.63494098 6.6986599
4.1844501 0.515571 6.7160401
4.1714301 0.51743197 6.7159801
4.16083 0.51893401 6.71703
4.2227201 0.51089001 6.71416
4.2151499 0.51199299 6.7137098
4.2115302 0.51251698 6.7137299
4.2781301 0.58075798 6.6924601
4.33849 0.65670699 6.6806898
4.2727599 0.62056798 6.68926
4.2737298 0.62024999 6.6889801
4.2624402 0.66621 6.6843901
4.26508 0.66617501 6.6842599
4.30621 0.66042298 6.6826601
4.23666 0.672122 6.6841402
4.03618 0.69124901 6.7025299
4.2321301 0.62806797 6.69175
4.2101698 0.671588 6.6894598
4.1589699 0.636751 6.6970901
4.1690898 0.63566101 6.6965098
4.0485201 0.59200197 6.7113299
4.2167401 0.67103601 6.6895399
4.26124 0.62312001 6.6900702
4.2049499 0.58956599 6.6974301
4.20016 0.63108301 6.6928101
4.1890702 0.63569099 6.6960001
4.2202702 0.63021201 6.6929202
4.23453 0.62720501 6.69133
4.2645898 0.67022097 6.6848402
4.2087998 0.67214698 6.6897202
4.2206101 0.71758097 6.6849899
4.2662201 0.66897202 6.6853399
4.1665902 0.568703 6.7033501
4.2314301 0.67495602 6.6866002
4.3185201 0.66311198 6.6771898
4.2192998 0.71813297 6.68537
4.2859302 0.66656703 6.6838498
4.2762098 0.667804 6.6845198
4.0574899 0.59028399 6.7083001
4.2989802 0.66430801 6.6834402
4.1431398 0.56883198 6.70469
4.1944599 0.63388097 6.6949401
4.1224699 0.57251 6.7058101
4.0571699 0.59146702 6.7095299
4.1525502 0.569929 6.7040901
4.1828198 0.56682801 6.7024498
4.2079501 0.56271601 6.7003198
4.1487098 0.57072502 6.70507
4.19239 0.56552702 6.7016702
4.33324 0.659482 6.6815901
4.1342902 0.63745701 6.6985698
4.2895498 0.665811 6.6837502
4.1976299 0.680812 6.6870198
4.24121 0.67570102 6.67869
4.0381398 0.69554597 6.7026801
4.2197599 0.71919399 6.6857901
4.1539998 0.63666898 6.6989198
4.1766701 0.600299 6.69591
4.0356002 0.681373 6.7023802
