# .PCD v0.7 - Point Cloud Data file format
VERSION 0.7
FIELDS x y z
SIZE 4 4 4
TYPE F F F
COUNT 1 1 1
WIDTH 103
HEIGHT 1
VIEWPOINT 0 0 0 1 0 0 0
POINTS 103
DATA ascii
2.43806 0.50216502 5.9761701
2.3840699 0.38997999 5.7712202
2.6142299 0.45337701 5.7779999
2.36448 0.49259299 5.9555001
2.43699 0.501513 5.9792199
2.54636 0.50693703 5.8435102
2.43279 0.50145102 5.98031
2.56356 0.55682898 5.8341899
2.4651101 0.49369201 5.8508801
2.4489801 0.52631903 5.9237099
2.2660899 0.284477 5.6293402
2.2595899 0.28686401 5.6069198
2.4431701 0.50414199 5.9738698
2.26788 0.28286999 5.62431
2.4328899 0.50804901 5.9190698
2.42137 0.50142598 5.8585
2.4613299 0.50765097 5.8653498
2.4927499 0.482086 5.7174301
2.53708 0.567635 5.8613
2.4737 0.39951199 5.7276201
2.4437799 0.50215602 5.97925
2.3599601 0.500848 5.9802699
2.35553 0.500202 5.9784198
2.4626701 0.49493501 5.8576999
2.45784 0.520248 5.9196
2.2641201 0.284861 5.61621
2.4767101 0.51050299 5.8568001
2.4114001 0.43606201 5.7427702
2.42397 0.50773197 5.97858
2.4474399 0.515652 5.9110098
2.4371099 0.50535399 5.9707098
2.4408801 0.51434898 5.9251599
2.2606399 0.286562 5.6141701
2.46192 0.50871402 5.8653498
2.3759201 0.38906601 5.7709298
2.43278 0.40876001 5.74582
2.4582 0.501472 5.86976
2.4695101 0.39783299 5.7207298
2.4459801 0.51448399 5.9225101
2.26087 0.28458199 5.6145
2.4333601 0.509754 5.9761701
2.47665 0.399647 5.7200599
2.5243101 0.510185 5.8228102
2.4895699 0.483293 5.71454
2.46734 0.50398803 5.86022
2.4370601 0.51302803 5.9229798
2.4596901 0.50459301 5.8652501
2.35569 0.50232798 5.9751401
2.3694301 0.39022699 5.7739301
2.4565401 0.51157802 5.9183202
2.44121 0.49583399 5.8699799
2.4286499 0.49761099 5.8513999
2.3496399 0.49654999 5.97473
2.3749599 0.38995701 5.7724099
2.53861 0.56588 5.85532
2.5396299 0.47906399 5.88205
2.52178 0.51117402 5.8209701
2.36341 0.50300997 5.9818802
2.24929 0.28755099 5.61696
2.25229 0.289738 5.6178298
2.4298601 0.51740098 5.9766402
2.4772799 0.50843102 5.8981199
2.4433899 0.496878 5.8605299
2.4283099 0.49727699 5.8515601
2.4672599 0.50214601 5.8621898
2.4514799 0.49300101 5.8635302
2.3591299 0.50108403 5.9756699
2.4507301 0.50530303 5.9183998
2.4426899 0.507788 5.9189501
2.4754601 0.500404 5.9243398
2.3643501 0.504484 5.9829898
2.3627801 0.50894898 5.9670501
2.54512 0.56482702 5.8515601
2.4425001 0.49450201 5.86689
2.4289601 0.49859101 5.85357
2.4365799 0.49656299 5.8561602
2.4465599 0.51182401 5.8737102
2.4613199 0.51347703 5.9147601
2.3498001 0.49913499 5.9709001
2.35901 0.50278097 5.9760599
2.4017 0.508053 5.9631701
2.52123 0.50900197 5.8273702
2.4430699 0.50048298 5.8608799
2.4458799 0.50460702 5.8687901
2.4356699 0.512447 5.92629
2.4644301 0.51389498 5.9552598
2.35412 0.50038099 5.9751501
2.36994 0.391893 5.7729998
2.5404899 0.56229299 5.8520002
2.25369 0.292301 5.6089401
2.35777 0.50287598 5.9789701
2.3587999 0.50675797 5.9710698
2.36817 0.50809097 5.9868698
2.5650899 0.56647199 5.8506799
2.5681901 0.56734902 5.8652101
2.4676399 0.494477 5.8717499
2.55826 0.55649602 5.8435798
2.5725601 0.55922699 5.8558602
2.5501499 0.50981402 5.8457999
2.3800499 0.493175 5.9625201
2.57933 0.50113302 5.8199
2.5848801 0.55555099 5.8649402
2.56722 0.568735 5.8622298
