# .PCD v0.7 - Point Cloud Data file format
VERSION 0.7
FIELDS x y z
SIZE 4 4 4
TYPE F F F
COUNT 1 1 1
WIDTH 335
HEIGHT 1
VIEWPOINT 0 0 0 1 0 0 0
POINTS 335
DATA ascii
-4.0180001 -0.85033602 0.54323
-3.9855299 -0.87726098 0.58300602
-3.9116199 -0.86320502 0.841528
-3.8427601 -1.0288301 0.31386101
-3.9082501 -0.91350299 1.02233
-3.90836 -1.00065 0.53199601
-3.9382801 -0.92393899 0.97131199
-3.73522 -0.93104899 0.84327698
-4.0442901 -0.90722698 0.28605899
-3.7852399 -0.93932498 1.01344
-3.81391 -0.92145401 0.95362902
-3.7927201 -0.974325 0.69763798
-3.77318 -0.957829 0.65130699
-3.8234601 -0.94483799 0.79200298
-3.7774701 -0.93292803 0.87573302
-3.859 -1.06945 0.31848899
-3.8631201 -0.96877599 0.59001201
-3.8208399 -0.88758302 0.81256199
-3.7688899 -0.96348101 0.691405
-3.8770499 -0.93521798 0.99757999
-3.9093599 -0.84838599 0.99686402
-3.8801601 -0.93337601 0.98436898
-3.86269 -0.93452698 0.89995998
-3.9007599 -1.0186 0.36293301
-3.81618 -0.83995599 0.94746101
-3.89623 -0.90781897 0.44455799
-3.7407 -0.95387203 0.71560198
-3.87221 -0.90757799 0.75325602
-3.83092 -0.81914097 1.14376
-3.8934901 -0.91832203 1.1633101
-3.8926599 -0.93320101 1.0481499
-3.8494201 -0.877334 1.07752
-3.8198199 -0.99465799 0.205761
-4.0109901 -0.79547 0.57736701
-3.8775301 -0.92337799 1.07201
-3.8440199 -1.01574 0.54215503
-3.90762 -0.88015503 0.61428797
-3.8726599 -1.01498 0.156376
-3.9646201 -0.935247 0.54796702
-3.9007299 -0.93145198 0.41358599
-3.8301101 -1.01038 0.54704899
-3.97453 -0.85077798 0.51738697
-3.87028 -1.01485 0.54053903
-3.8626299 -1.02082 0.53127599
-3.86566 -1.05989 0.33501899
-3.87361 -1.02557 0.222288
-3.8852401 -0.98428297 0.14592101
-3.9872701 -1.0373 0.30652601
-3.79687 -1.00397 0.478643
-3.94469 -0.96537501 0.34415099
-3.8571401 -1.02073 0.24911401
-3.8743701 -0.98119497 0.19451199
-3.9033 -0.948686 0.41381899
-3.8141301 -1.01077 0.47437999
-3.92855 -0.98437601 0.26552501
-4.0431299 -0.80382502 0.30343699
-3.8594301 -1.01877 0.24960899
-3.91608 -0.951446 0.43406799
-3.9156301 -0.93626899 0.45337501
-3.9082899 -0.91057497 0.30101499
-3.8928001 -0.98763603 0.150466
-3.8765199 -0.98184299 0.201434
-3.8965001 -0.97045302 0.29112399
-3.9084101 -1.02168 0.392979
-3.8866799 -0.95160598 0.438032
-3.9102099 -0.95654702 0.365852
-3.91096 -0.903292 0.34614801
-3.8859401 -0.98126203 0.177303
-3.8838699 -0.98017901 0.19208001
-3.8559101 -0.991283 0.59570599
-3.8431799 -0.99950099 0.55133098
-3.88834 -0.93661702 0.53814501
-3.9064701 -0.93213302 0.47360501
-3.8698699 -0.95657098 0.42416999
-3.9075899 -0.93339902 0.44071999
-3.9063201 -0.921049 0.45655799
-3.8991899 -0.95556802 0.346136
-3.8835101 -0.969446 0.29333901
-3.86731 -0.974989 0.22513001
-3.90797 -0.90942901 0.31443101
-3.9275 -0.95275599 0.18602
-3.86923 -0.973737 0.21324401
-3.8921299 -0.95596999 0.56943297
-3.87256 -0.924187 0.60592997
-3.881 -0.91653198 0.59739101
-3.87307 -1.0003901 0.47320601
-3.8773799 -0.931566 0.54474801
-3.8842101 -0.89937198 0.51865202
-3.87813 -0.96352899 0.355418
-3.89186 -0.91755003 0.39384401
-3.89677 -0.90711898 0.39673999
-3.8771501 -0.97170699 0.27625
-3.8612001 -0.97772801 0.16988499
-3.8690701 -0.98237801 0.13586
-3.8778999 -0.97323 0.257586
-3.8724999 -0.94318497 0.61613601
-3.8699901 -0.92102098 0.63318902
-3.89047 -0.90768403 0.54516
-3.8747301 -0.935368 0.482263
-3.8762801 -0.94057298 0.44585401
-3.88467 -0.90968198 0.43554401
-3.8866899 -0.95090199 0.36884901
-3.8814499 -0.93332601 0.393002
-3.8768499 -0.97208399 0.31783599
-3.9038601 -0.94044602 0.25535101
-3.8762801 -0.97472298 0.251075
-3.8784499 -0.90003401 0.52135801
-3.83637 -0.95872301 0.796359
-3.8652301 -0.90831798 0.75737
-3.8847001 -0.891433 0.73111802
-3.8712001 -0.947047 0.58559299
-3.8684299 -0.92303801 0.61554497
-3.8768101 -0.91636401 0.58755201
-3.87639 -0.93705201 0.49117401
-3.87956 -0.928424 0.45016
-3.8789599 -0.945741 0.39192799
-3.8792901 -0.96895099 0.310377
-3.8959501 -0.90839797 0.31591299
-3.8217599 -0.96005499 0.79834503
-3.8468399 -0.949516 0.91114902
-3.8377099 -0.948623 0.89214998
-3.83917 -0.95409602 0.85439402
-3.8732901 -0.90080398 0.85722297
-3.8865099 -0.88160402 0.85776401
-3.7875299 -0.98927099 0.68860602
-3.8763001 -0.929371 0.74608099
-3.8790901 -0.937204 0.72964299
-3.88485 -0.888529 0.78462899
-3.8880799 -0.89148003 0.75829703
-3.88677 -0.89064902 0.72704899
-3.8648 -0.99120599 0.59835702
-3.86305 -0.99182999 0.58838803
-3.87941 -0.92777997 0.56492901
-3.8850601 -0.95886701 0.26214799
-3.87795 -0.98291498 0.19824301
-3.8680301 -0.99476099 0.584804
-3.86958 -0.99353099 0.59517199
-3.8548601 -0.938977 0.95300698
-3.83637 -0.95335799 0.92664301
-3.8462999 -0.95594901 0.87079602
-3.8697701 -0.90519899 0.90867698
-3.8640499 -0.91509098 0.89245999
-3.8062401 -0.96611601 0.77690101
-3.8786299 -0.90402699 0.839634
-3.7985201 -0.966793 0.70186597
-3.8824799 -0.93806303 0.73968601
-3.8936501 -0.89311397 0.751459
-3.89275 -0.89298302 0.72816902
-3.86918 -0.99350899 0.57740003
-3.8804801 -0.91749901 0.60565799
-3.8855801 -0.91898102 0.58586699
-3.87674 -0.94371802 0.486278
-3.88311 -0.93904799 0.49261299
-3.88308 -0.94524598 0.42137
-3.9249201 -0.85942298 0.53908497
-3.8870201 -0.966178 0.347684
-3.88358 -0.98329997 0.185219
-4.0378199 -0.859559 0.24222501
-4.0188498 -0.79786402 0.31733
-3.8676801 -0.93560702 1.11701
-3.84131 -0.93650299 1.08631
-3.8441999 -0.94141001 1.06033
-3.84833 -0.945144 1.03917
-3.86726 -0.891545 1.04953
-3.8961899 -0.86369801 1.0752701
-3.87079 -0.87818599 1.05575
-3.8613801 -0.945656 0.98531502
-3.8436501 -0.95253402 0.94536901
-3.89803 -0.87038398 1.01008
-3.8461399 -0.96029299 0.86954999
-3.8470099 -0.96074402 0.85074103
-3.87128 -0.90992099 0.85618502
-3.8915 -0.87955803 0.88060403
-3.8947301 -0.87787902 0.88250101
-3.88534 -0.90865397 0.80585402
-3.82337 -0.96437299 0.70162499
-3.8967299 -0.88834101 0.78549498
-3.8965001 -0.89175701 0.69944698
-3.8940201 -0.93059897 0.61463702
-3.88415 -0.92848599 0.56377202
-3.88905 -0.90697497 0.54377902
-3.8847599 -0.93963498 0.49399599
-3.8910999 -0.97054601 0.35068899
-3.8857901 -0.98371702 0.23927
-3.9040899 -0.94232899 0.24816
-4.0422101 -0.859501 0.238546
-3.87115 -0.92562902 1.15575
-3.8649399 -0.93515903 1.12213
-3.84372 -0.93831497 1.09391
-3.86887 -0.92902499 1.06753
-3.8477001 -0.944938 1.04217
-3.8698001 -0.89222598 1.03247
-3.8838401 -0.87178898 1.05137
-3.8475399 -0.95414901 0.945032
-3.8935299 -0.868599 1.01905
-3.8745699 -0.88934302 0.99322999
-3.8418701 -0.95874602 0.86912298
-3.9024301 -0.87555701 0.952479
-3.8729899 -0.90522403 0.90970099
-3.85274 -0.95442599 0.85552901
-3.8528399 -0.95842999 0.79893303
-3.8968201 -0.88149297 0.87195897
-3.8965199 -0.88451499 0.84910601
-3.9018199 -0.88580698 0.84162599
-3.8071699 -0.97203898 0.70153099
-3.87692 -0.93644899 0.74503398
-3.8994401 -0.89352697 0.76228303
-3.8926001 -0.91408098 0.72456998
-3.8890901 -0.920385 0.693883
-3.89869 -0.89402503 0.69967502
-3.8912201 -0.95531797 0.569646
-3.88464 -0.93766201 0.51555902
-3.88539 -0.93870199 0.48488599
-3.89992 -0.91567302 0.388825
-3.89732 -0.89615798 0.41518301
-3.89257 -0.97793001 0.231649
-4.0353599 -0.84248698 0.23511
-3.8721299 -0.92650503 1.16286
-3.8504701 -0.93665802 1.1353101
-3.8601601 -0.933837 1.10023
-3.8178599 -0.947088 1.03678
-3.8202701 -0.950059 1.01537
-3.8693099 -0.93621403 0.97231799
-3.85006 -0.953008 0.94425702
-3.87343 -0.88836902 1.00273
-3.9047101 -0.86493701 1.02212
-3.84885 -0.954274 0.926153
-3.83112 -0.963965 0.88606203
-3.89627 -0.875754 0.94510698
-3.90062 -0.87774199 0.92018402
-3.8629899 -0.91425198 0.87498599
-3.8225 -0.96489698 0.81573999
-3.8429699 -0.96443802 0.81227398
-3.8270099 -0.96604198 0.79548103
-3.87376 -0.91218102 0.813402
-3.89729 -0.88601398 0.83546799
-3.82989 -0.96465403 0.70546502
-3.88851 -0.93902999 0.73833501
-3.8996899 -0.892726 0.75840402
-3.9000499 -0.89486903 0.74123299
-3.9044099 -0.89519298 0.72609299
-3.8556001 -0.91671598 0.65012503
-3.8963699 -0.936351 0.55260301
-3.8843701 -0.93796998 0.49306101
-3.90381 -0.91138899 0.301828
-3.91522 -0.95524001 0.17526001
-3.86658 -0.92248499 1.1029
-3.84886 -0.94452202 1.04368
-3.8606701 -0.941742 0.98960501
-3.8464 -0.95038998 0.94407499
-3.8273799 -0.957111 0.90285403
-3.8461001 -0.95641899 0.88318402
-3.8707399 -0.91311401 0.89546102
-3.83231 -0.967686 0.82943797
-3.90224 -0.88011998 0.91161901
-3.9063201 -0.88397098 0.88464499
-3.8081999 -0.96858197 0.78767002
-3.9019201 -0.88617802 0.85089701
-3.8701 -0.91970497 0.80866498
-3.8982601 -0.88678402 0.83705902
-3.80845 -0.97787702 0.69669199
-3.8978701 -0.89954001 0.78442502
-3.8840401 -0.93365198 0.73462999
-3.8717799 -0.99556899 0.58368599
-3.88025 -0.92751002 0.59215498
-3.8903999 -0.93614697 0.53005803
-3.91855 -0.91418099 0.49246001
-3.8952999 -1.0512201 0.279322
-3.91781 -0.95421302 0.17028899
-3.85849 -0.94279701 0.97078502
-3.84589 -0.95210701 0.92426199
-3.8633499 -0.93711901 0.87775201
-3.83952 -0.95973599 0.77715498
-3.90488 -0.88895297 0.84712398
-3.90553 -0.89259303 0.79664397
-3.8905201 -0.913553 0.72444499
-3.8704901 -0.99799597 0.58200902
-3.8545799 -0.91289198 0.66771197
-3.9054401 -0.89957798 0.67778897
-3.91608 -0.901954 0.676085
-3.898 -0.939619 0.55143601
-3.8889501 -0.946311 0.41241401
-3.8982899 -0.90680599 0.32221401
-3.8907499 -0.984451 0.16317201
-3.8506701 -0.960787 0.83249199
-3.81058 -0.96676701 0.81330901
-3.8684399 -0.904715 0.86140698
-3.8469999 -0.962699 0.78988302
-3.8097301 -0.97750098 0.69561398
-3.89924 -0.92829603 0.68252802
-3.87305 -0.995121 0.58224899
-3.8545301 -0.91115302 0.65778297
-3.9140301 -0.902062 0.65796298
-3.8845301 -0.93641299 0.52057898
-3.88445 -0.937805 0.49571899
-3.8889401 -0.94384801 0.44861999
-4.0490899 -0.779953 0.64144802
-3.88764 -0.978109 0.26146501
-3.8936501 -0.97935098 0.218932
-4.02072 -0.83079898 0.25499099
-3.86619 -0.90434003 0.81869
-3.8455999 -0.96241999 0.758834
-3.8405499 -0.96454698 0.70537102
-3.9513099 -0.87121701 0.79142499
-3.8933599 -0.941109 0.50314999
-3.8819001 -0.93878597 0.45346799
-3.8969901 -0.951563 0.40079501
-3.89501 -0.97198302 0.273745
-3.8928299 -0.98337501 0.172636
-3.9372101 -0.94975501 0.97374898
-3.83095 -0.98221499 0.33262599
-3.8856001 -1.02775 0.38393599
-3.8878801 -0.94707102 0.38133401
-3.9214699 -0.95551503 0.232245
-3.8893299 -0.9745 0.27228701
-3.8823199 -1.04293 0.19387899
-3.8826301 -1.06801 0.15268999
-3.8936601 -0.98732901 0.155131
-3.90255 -0.90856802 0.320696
-3.9191999 -0.95274001 0.16418301
-3.8894401 -0.98560899 0.189015
-3.8864601 -0.92783898 0.46045899
-3.88571 -0.93371201 0.53129601
-3.88943 -0.92093301 0.53722799
-3.8825901 -0.932482 0.542211
-3.88499 -0.94580603 0.42720699
-3.9019301 -0.907565 0.40195
-3.8797901 -0.99178702 0.59038597
-3.89082 -0.983823 0.175355
-3.8897099 -0.97301298 0.25445199
-3.8900499 -0.97723401 0.236095
-3.8913 -0.98180097 0.15172
-3.90835 -0.93514597 0.30588499
-3.89393 -0.97596502 0.239833
-3.92662 -0.95607102 0.18063401
