# .PCD v0.7 - Point Cloud Data file format
VERSION 0.7
FIELDS x y z
SIZE 4 4 4
TYPE F F F
COUNT 1 1 1
WIDTH 65
HEIGHT 1
VIEWPOINT 0 0 0 1 0 0 0
POINTS 65
DATA ascii
3.1285 0.35238099 2.7432599
3.14309 0.33597001 2.75034
3.19274 0.33097601 2.8257599
3.1784599 0.33242801 2.81197
3.14627 0.33166301 2.7400601
3.1659801 0.333478 2.78214
3.17839 0.34678301 2.88095
3.13234 0.33912301 2.73559
3.1593101 0.33549201 2.7903099
3.16044 0.34522399 2.8357
3.16102 0.37064201 2.8903699
3.16324 0.36131799 2.84672
3.1631701 0.35743901 2.9070499
3.1440301 0.34256601 2.78636
3.1531701 0.36626101 2.90325
3.14535 0.35273001 2.84642
3.13837 0.34197599 2.77634
3.14026 0.348802 2.7927201
3.1430199 0.351096 2.81022
3.1661899 0.36982399 2.89099
3.1380301 0.37109199 2.8591499
3.1276901 0.351937 2.74423
3.14305 0.36447901 2.86536
3.1505201 0.36228201 2.8833101
3.13362 0.36326501 2.8602901
3.1327701 0.34282801 2.75596
3.1421001 0.34301299 2.77021
3.1607699 0.363709 2.9117601
3.1449001 0.35297599 2.8243001
3.1475301 0.35458401 2.85344
3.14382 0.34004301 2.7835
3.1382401 0.34599999 2.7544601
3.1444499 0.36501801 2.8426499
3.1468899 0.35261601 2.8336899
3.14358 0.34395099 2.77706
3.14868 0.35998499 2.87376
3.1464901 0.36551201 2.8668399
3.1465299 0.354112 2.82918
3.1358199 0.343622 2.74911
3.1452501 0.35512099 2.81723
3.14505 0.34559199 2.7892101
3.1478601 0.358951 2.8513899
3.1577401 0.36196399 2.9125099
3.1586399 0.36218199 2.91523
3.14433 0.34446701 2.7786901
3.13326 0.349078 2.7325399
3.1501701 0.369735 2.90065
3.13972 0.35578901 2.7995701
3.14308 0.35960001 2.8610699
3.1343801 0.34307501 2.7514901
3.1439199 0.37165099 2.8931201
3.13118 0.34281799 2.74102
3.14257 0.34313399 2.7865701
3.14466 0.35419199 2.83834
3.15186 0.365114 2.9152
3.1499701 0.362205 2.8739901
3.1329 0.34526801 2.7653601
3.13886 0.34843501 2.83566
3.1462801 0.36770999 2.9160199
3.1464701 0.36333299 2.88463
3.1367099 0.346358 2.75508
3.14205 0.355057 2.8248501
3.15588 0.36495599 2.91313
3.1426499 0.36138999 2.8386199
3.1403999 0.35873899 2.79638
