# .PCD v0.7 - Point Cloud Data file format
VERSION 0.7
FIELDS x y z
SIZE 4 4 4
TYPE F F F
COUNT 1 1 1
WIDTH 1559
HEIGHT 1
VIEWPOINT 0 0 0 1 0 0 0
POINTS 1559
DATA ascii
-0.99548501 0.99938202 1.66531
-0.92895502 0.99344301 1.6502301
-1.01676 1.01715 1.7494
-0.78860098 0.97408497 1.6239901
-0.81266201 0.97618997 1.6434799
-1.02369 1.0197001 1.78031
-0.47925699 0.91093802 1.42873
-0.563407 0.92765599 1.49665
-0.26093099 0.87187898 1.29642
-0.43714499 0.90739501 1.41857
-0.757671 0.97092301 1.63796
-0.81921703 0.98889399 1.69625
-0.0092714401 0.83784902 1.1919399
-0.314073 0.89804101 1.4198101
-0.50255102 0.92287803 1.56348
0.086216599 0.816715 1.15281
0.138446 0.807854 1.17061
-0.0273639 0.848167 1.27803
-0.16952699 0.87399399 1.38389
0.187206 0.80024701 1.14627
0.115324 0.81877899 1.2076401
0.0473192 0.83063698 1.26096
0.170205 0.80348998 1.13421
-0.433779 0.91698498 1.52715
-0.43407801 0.91721499 1.49717
-0.47251299 0.91948098 1.51415
-0.31538501 0.88260698 1.32087
-0.82386702 0.974603 1.64943
-0.441174 0.86981201 1.07289
-0.44042501 0.87687999 1.1270601
-0.013668 0.845698 1.30074
-0.089284301 0.85288203 1.32085
0.0156729 0.83839202 1.2410001
-0.197338 0.87167901 1.36272
-0.43311 0.92014301 1.518
-0.59909499 0.95436698 1.59914
-0.43343699 0.91579902 1.4773999
-0.43663001 0.912462 1.47909
0.0021984801 0.82705098 1.17492
-0.434558 0.90806299 1.44988
-0.43752101 0.90859503 1.4406199
-0.29834601 0.88013202 1.3317
-0.44095001 0.88716102 1.21494
-0.44142601 0.88739401 1.19837
-0.447494 0.86067802 0.91869801
-1.03549 0.85826898 0.120391
0.310413 0.68848097 0.112064
-0.45454401 0.83762801 0.68010098
-0.456099 0.842803 0.71695
-0.71258003 0.93158001 1.37287
-0.659199 0.932495 1.38857
-0.77819598 0.957129 1.4615901
-0.53794003 0.91186303 1.31496
-0.484925 0.89982599 1.29944
-0.533539 0.895477 1.35955
-0.193645 0.84865302 1.11945
-0.188704 0.84690702 1.12456
-0.75400001 0.95040298 1.50506
-0.59624797 0.923011 1.40598
-0.480324 0.90947598 1.38711
-0.223579 0.861386 1.19652
-0.47996101 0.90792 1.37567
-0.47976401 0.908077 1.38195
0.052180301 0.807136 1.03532
-0.29708299 0.87167001 1.27604
-0.31524801 0.87917298 1.30732
-0.18673199 0.85927898 1.2210701
-0.31725901 0.88191003 1.31757
-0.28005299 0.87143099 1.3031
-0.065977603 0.84116 1.15649
-0.22105099 0.86727899 1.26557
0.126588 0.80175799 1.03567
-0.042044099 0.83298701 1.1507
-0.0209033 0.82738203 1.16528
0.228028 0.78547001 1.02764
-0.72020298 0.93873298 1.46024
-0.169377 0.85417801 1.23506
0.0196763 0.82626897 1.1186399
-0.484797 0.90304798 1.33875
-0.39725301 0.88864201 1.26393
-0.88748801 0.98090303 1.51827
-0.64839202 0.90340102 1.15488
-0.26585501 0.78602397 0.31594899
-0.48901099 0.892555 1.20032
-2.0217099 1.07581 1.1533099
-0.65540999 0.89767498 1.16196
-0.47042301 0.87849998 1.06385
-0.33758199 0.85826802 1.03413
-0.102564 0.81744701 0.90197802
-0.64386302 0.91257298 1.24769
-0.181449 0.84291101 1.06546
-0.217687 0.84121698 1.02209
0.053251501 0.79090399 0.867342
-0.18980099 0.84568298 1.02132
0.27299201 0.76177502 0.864438
-1.09277 0.98006397 1.33313
-0.49079499 0.887514 1.17474
0.117 0.78355902 0.86484599
-0.095187597 0.828852 1.0215501
-0.078065097 0.82332498 0.99188799
-0.48827699 0.89208901 1.2092201
-0.27123201 0.78069502 0.29535401
-0.47711301 0.868258 0.94369602
-0.039310899 0.80337799 0.86695898
0.30015999 0.63288701 -0.425897
-0.476648 0.77101499 -0.125787
-0.477265 0.77928501 0.077203102
-0.47237399 0.79302102 0.109732
0.31231001 0.705118 0.322862
-0.47308099 0.87076801 0.98241401
-0.443331 0.86088198 0.93860698
-1.78438 0.97406399 0.36423701
-0.76060402 0.84655201 0.44882199
-0.70990098 0.85396397 0.47171801
-0.47954801 0.74451703 -0.36489299
-0.78741503 0.86108398 0.453738
0.31104401 0.69249701 0.150509
-0.54055703 0.846012 0.65803099
-0.48580801 0.85445201 0.76428598
0.31234699 0.71304601 0.36771801
-0.36603701 0.84404999 0.86263001
0.31865901 0.72534198 0.51299399
-0.48073199 0.86091202 0.85977602
-1.75915 0.96537203 0.37481499
-0.180279 0.73685801 0.0062322398
-1.9092799 0.99825698 0.39663401
-0.161798 0.72737199 -0.0630202
-0.46068901 0.81503302 0.428168
-0.195097 0.747491 0.090020202
0.30518001 0.66658002 -0.131304
0.306858 0.67310703 -0.0044472399
-0.64119399 0.846138 0.49610999
-0.320355 0.78327298 0.442747
0.30948901 0.70162702 0.25113899
0.31699699 0.72143602 0.449278
0.318811 0.72139299 0.458543
-0.50018102 0.83004802 0.48708099
-0.962008 0.83770901 0.047648098
-1.1472501 0.62566203 -0.043661602
-0.50376397 0.812958 0.341499
-0.26598999 0.77402198 0.24423601
-1.1599801 0.62609798 -0.0299844
-1.00281 0.87098098 0.25548899
-0.543522 0.75069702 -0.36750001
-2.0903399 1.0228699 0.39054
-1.0179 0.86511302 0.149598
-1.4742 0.93519402 0.36073101
0.299101 0.640508 -0.335352
-0.91575199 0.85795599 0.344228
0.30343699 0.67123902 -0.056823701
-0.45962101 0.81212699 0.41423801
-0.26041701 0.78375697 0.317395
-0.057699099 0.696639 -0.27116001
-0.51149398 0.84020698 0.65904802
-0.50439698 0.83379 0.65760201
-0.77612102 0.866597 0.55229402
-0.33401501 0.778521 0.46214899
-0.34580699 0.78090602 0.47358999
-0.52097398 0.833812 0.544361
-0.29756799 0.799519 0.47617701
-0.454882 0.82563198 0.55362499
-0.48990801 0.83713901 0.58567202
-0.540712 0.83413702 0.65323502
-0.434928 0.820777 0.62267202
-0.78263402 0.84741002 0.34618399
-0.85491401 0.85260201 0.42037499
-0.246371 0.768323 0.228273
-0.272003 0.78356302 0.36429
-0.45635 0.813115 0.43119901
-0.50163698 0.82216001 0.444619
-0.28198701 0.77873403 0.36994299
-0.50220001 0.81779897 0.425381
-0.45705 0.80495501 0.361687
0.56448197 0.61612701 -0.0146268
-0.252478 0.76545399 0.215996
0.71686101 0.609137 -0.16972201
-0.45952901 0.795748 0.21578801
-0.203215 0.75456798 0.122362
-0.90158099 0.85189497 0.35780001
-2.3625801 1.0591201 0.423253
-0.47104999 0.74831402 -0.30233499
-2.3425801 1.05813 0.409408
-0.49165401 0.75865299 -0.20315699
-2.19261 1.03725 0.410045
-1.7358299 0.968337 0.403714
-1.55081 0.94807303 0.36400399
0.51987201 0.59678799 -0.28562099
-1.37203 0.920995 0.359887
0.530285 0.60724598 -0.242349
0.72891998 0.566962 -0.28185999
0.42476001 0.68990898 -0.27646101
0.54083103 0.62468302 -0.080554202
-0.21461999 0.75129098 0.124629
-1.43208 0.93238997 0.361783
0.516312 0.59373701 -0.29137599
-1.03045 0.858441 0.187811
-0.95888603 0.834858 0.122302
0.68669403 0.58377397 -0.51717103
-0.47992301 0.76550299 -0.091822602
-0.93145001 0.82900202 0.0412663
-2.1240599 1.03293 0.407709
-2.1254001 1.0232199 0.39428401
-1.0575401 0.60935402 -0.051386598
-0.20454501 0.74734998 0.113271
0.52972299 0.617405 -0.14225499
-0.16675501 0.73706001 0.0294916
-0.17238601 0.73367798 -0.0013071001
-0.463496 0.77693701 0.038115501
0.454896 0.708736 -0.502657
-0.13171799 0.71028101 -0.116113
-0.97097498 0.84466702 0.124508
-0.46340999 0.76879501 -0.076542698
0.67283201 0.565826 -0.44233701
-0.059150402 0.698201 -0.22894301
-1.83366 0.98043698 0.375622
0.51446003 0.60333902 -0.28153601
-1.04853 0.88066202 0.35166201
-1.90216 0.99191898 0.376311
0.51887101 0.64229202 -0.067956403
0.31966299 0.67909199 -0.035767399
-1.87625 0.98513597 0.37418199
-0.46242201 0.78087699 0.104346
0.527978 0.60961902 -0.151402
-1.4774899 0.93268001 0.39026299
-1.416 0.928415 0.363042
0.611884 0.60080999 -0.249713
-1.6938601 0.96657997 0.38591501
-1.63041 0.95814699 0.36482099
-1.61203 0.95306802 0.36363
0.72619802 0.55342197 -0.24786
-0.153632 0.72229999 -0.072865501
-1.72569 0.97057599 0.36649999
-1.8169399 0.97807503 0.37433901
-0.95606202 0.833278 0.11195
-1.96715 0.99763697 0.40391499
-2.1549499 1.02736 0.41271701
-1.94875 0.99211299 0.38167101
-2.0874 1.01723 0.41505301
0.53914398 0.6117 -0.25832701
-0.93437803 0.82880199 0.049795799
0.31049499 0.65346903 -0.235486
-0.496865 0.691948 -0.55174798
-0.46599901 0.73406398 -0.42516699
-0.47042301 0.73918599 -0.39892
0.306173 0.63438702 -0.47256801
-0.051858801 0.67263299 -0.327317
0.67794001 0.539442 -0.44317701
0.322101 0.64624399 -0.382976
0.70718902 0.54839897 -0.40353999
-0.078858398 0.70709401 -0.19966801
0.52736598 0.59785002 -0.334739
0.31142399 0.651407 -0.26528901
0.672454 0.54625303 -0.44125399
0.30801401 0.63399702 -0.44362101
-0.537835 0.74711502 -0.37236401
-1.10779 0.60732198 -0.072228603
0.63689101 0.57218403 -0.48882601
-1.0845799 0.60494697 -0.083544001
0.411118 0.92743498 1.79514
0.40674001 0.92013401 1.8248399
0.35406801 0.910631 2.37676
0.39681199 0.93239802 1.92082
0.393511 0.93222302 1.9697599
0.35091501 0.90909702 2.3620999
0.34956399 0.88426501 2.1524301
0.352339 0.88384801 2.1347401
0.34018001 0.90443099 2.2883
0.33160999 0.921785 2.3654399
0.351437 0.88853598 2.1758001
0.35044599 0.88991302 2.1917801
0.33862001 0.903808 2.40993
0.33696899 0.91378599 2.42012
0.34690201 0.90270698 2.29441
0.353286 0.89795202 2.2744401
0.34770101 0.90700299 2.35462
0.35623199 0.905747 2.29337
0.35484099 0.90727502 2.3217399
0.38639 0.92209899 1.7951699
0.38265499 0.93257397 1.81438
0.381138 0.93354702 1.91905
0.38790801 0.92636001 1.89413
0.386695 0.92928702 1.90592
0.39373201 0.92829001 1.80949
0.39151701 0.94102597 1.88987
0.38973001 0.92699999 1.82776
0.39151901 0.92671299 1.77145
0.38470599 0.92625999 1.87318
0.3558 0.90547001 2.31002
0.352433 0.88758099 2.1551099
0.35501701 0.88233298 2.1314499
0.35340199 0.88868397 2.11286
0.34387401 0.89372998 2.22506
0.312199 0.90267903 2.35658
0.350095 0.88666201 2.1096399
0.228339 0.915088 2.36637
0.25828001 0.910007 2.34934
0.25538799 0.92663598 2.36535
0.27261499 0.91623598 2.37186
0.305998 0.884323 2.0794001
0.29410699 0.90061003 2.22663
0.27961901 0.92607099 2.40975
0.27741101 0.93003798 2.4259901
0.29977399 0.897834 2.2334299
0.27891701 0.93373001 2.4100101
0.30927399 0.89560801 2.11798
0.289332 0.91901398 2.4254301
0.31395701 0.88816702 2.1363201
0.29434299 0.91847098 2.3549099
0.31573999 0.89579999 2.19508
0.31391701 0.90295202 2.2335999
0.34386501 0.86518103 1.90512
0.33145401 0.88140601 2.0911701
0.343027 0.87289298 2.0325999
0.345337 0.87261403 2.0292101
0.348744 0.87215501 1.99387
0.347303 0.87370002 2.02053
0.33611399 0.89183402 2.1580701
0.347938 0.87535602 2.0460501
0.37921301 0.92201698 1.77505
0.375745 0.92594099 1.84779
0.391864 0.91443098 1.7538199
0.38633001 0.91726297 1.78166
0.37676001 0.921134 1.79927
0.37737599 0.91747302 1.7526799
0.376425 0.91363698 1.75878
0.347597 0.87329 2.01616
0.345139 0.86759001 1.9655
0.32563901 0.88284498 2.0518601
0.30009601 0.89725298 2.23103
0.34636301 0.86647898 1.94113
0.29581901 0.90177798 2.2320299
0.27946299 0.90080702 2.29634
0.121637 0.933303 2.3596101
0.23237 0.91376299 2.34986
0.252933 0.89513701 2.1100099
0.30498499 0.84297401 1.7033401
0.280635 0.88231301 2.00735
0.27648601 0.88984901 2.0262301
0.29957101 0.86795002 1.92994
0.30634099 0.86694598 1.8831
0.30889499 0.86952198 1.97676
0.33106399 0.86652601 1.8884799
0.34231099 0.85481101 1.8209701
0.34110501 0.85955697 1.86391
0.34551501 0.85639697 1.8319401
0.176432 1.02245 2.5079801
0.221678 0.95041603 2.3863699
0.27297899 0.88642198 2.0281701
0.29527301 0.88410097 2.0520999
0.34314799 0.85626298 1.84166
0.34084499 0.85014302 1.79466
0.33989 0.86161602 1.87597
0.27475199 0.88819802 2.0258901
0.24242599 0.904019 2.20559
0.34569901 0.85650897 1.82512
0.34249601 0.86096603 1.86891
0.14847299 0.93344301 2.3675201
0.140753 0.93751502 2.4173
0.144823 0.934214 2.3642001
0.327656 0.85157502 1.72157
0.100918 0.940593 2.4040799
0.29409999 0.86463797 1.8583
0.33520901 0.84457302 1.71454
0.228883 0.89692998 2.14783
0.23219 0.89724398 2.1295199
0.24243499 0.88730401 2.0646601
0.29154399 0.86934602 1.93688
0.055446099 1.03529 2.51878
-0.33295399 0.880983 1.24264
-0.357054 0.96746302 2.0190699
0.086924501 0.93882602 2.4136801
-0.029798999 0.95373303 2.3648601
0.29218701 0.85848802 1.79048
0.274928 0.86270702 1.80238
0.308036 0.85402 1.73549
0.066904403 0.94615698 2.4103799
0.132623 0.87572402 1.75328
0.26083499 0.847673 1.6997401
0.214461 0.87903601 1.95819
-0.32552201 1.00172 2.4310701
0.0420486 0.86938298 1.66023
0.193065 0.882828 1.91724
-0.22076599 0.92524201 1.85382
0.0072996598 0.89034301 1.83163
0.073347002 0.927531 2.2002101
0.14517801 0.90015298 1.96329
0.162058 0.90473002 2.04776
0.20959599 0.86573797 1.7563601
0.24235199 0.87123299 1.85566
0.26481399 0.85786301 1.72797
0.26779601 0.85704798 1.72842
0.28837001 0.84926802 1.68381
0.29413101 0.84205103 1.68887
0.170782 0.88162202 1.94599
0.298132 0.85177499 1.71336
0.236542 0.861696 1.78414
0.27612001 0.853333 1.76024
-0.0475334 0.97232801 2.4251001
0.23058701 0.86521798 1.8155
0.027246101 0.95592898 2.4243701
-0.077104203 0.96699297 2.42483
-0.144227 0.91897798 1.90372
0.030630499 0.88446897 1.7219599
0.044462901 0.903332 1.90769
0.111132 0.86820197 1.71412
0.091607898 0.89186001 1.84472
0.101639 0.90121597 1.9739799
0.11192 0.89856702 1.94792
-0.43936199 1.00014 2.3138199
-0.022365799 0.90319002 1.8362499
0.20715199 0.86725497 1.79519
0.220681 0.85986203 1.78392
0.27696401 0.84844798 1.66862
-0.16649 0.96873897 2.25366
0.040015601 0.90877801 2.00208
0.24746899 0.85458398 1.74374
0.094610199 0.901797 2.04106
0.078819603 0.87768298 1.76917
-0.497527 0.97084701 1.93391
-1.14529 1.06875 1.94995
-0.429113 0.94333798 1.74633
-0.71437597 1.00621 1.93551
0.052556299 0.90243798 1.92518
-0.31440601 0.98189402 2.2525499
-0.163029 0.90596497 1.7546
-0.114662 0.88648999 1.56861
-0.160467 0.977364 2.4210899
-0.052287702 0.93664199 2.14274
0.070321597 0.893116 1.86791
0.126247 0.88401902 1.8489799
0.197203 0.86123598 1.6852601
0.224176 0.85364401 1.6422499
0.240069 0.84421003 1.6625
0.252213 0.84770799 1.64829
0.25898701 0.84478903 1.6514
-0.13767301 0.87993997 1.49731
0.0392044 0.90486902 1.9959199
0.22754399 0.85930401 1.69011
-0.263491 0.87687999 1.29792
0.115672 0.86375701 1.6860501
0.092014201 0.86553299 1.68593
-0.43240699 0.96166497 1.93478
0.064864099 0.88175601 1.74554
-0.112594 0.94420099 2.092
-0.232457 0.90411001 1.5793
0.202694 0.85006899 1.6467
-1.2266001 1.07512 1.94839
-0.38112 0.941055 1.69113
-0.234951 0.901088 1.57049
0.043037899 0.86514199 1.62695
-0.13362999 0.945243 2.0581601
-0.061136201 0.89244097 1.74272
-0.11925 0.93806601 2.0199299
-0.118222 0.95198798 2.1650701
0.021465899 0.890073 1.81556
0.00095455698 0.87143499 1.56779
-0.060875598 0.92038298 2.01213
0.12272 0.87800199 1.7819901
0.145772 0.85801899 1.65601
-0.30215901 0.95761597 2.0352299
-0.77165699 1.01232 1.93836
-0.42306101 0.98677301 2.1894
-0.51453203 0.97232598 1.88114
-0.42184201 0.99153 2.20439
0.106215 0.86527503 1.62585
-0.123709 0.87496102 1.44911
-0.0460933 0.87324297 1.52282
0.077459201 0.87403899 1.69015
-0.081841797 0.92501497 1.94302
-0.0107351 0.89715701 1.8020101
-0.42389399 0.96262699 1.9124
0.0022694599 0.88384598 1.68297
-1.60467 1.11853 1.94261
-0.92036903 1.03133 1.9255199
-0.62272602 0.99076802 1.91045
-0.41405401 0.98673499 2.17576
-0.46614301 0.947662 1.82038
-0.0615585 0.86110801 1.37682
-0.080250397 0.88361901 1.5866899
-0.45448199 0.974172 2.0174201
-0.45340499 0.97784799 2.05797
0.0330774 0.86604899 1.55278
-0.456779 0.97446197 2.0474
-0.42794001 0.968027 1.99498
-0.25482401 0.878519 1.35084
-0.49577001 0.99315703 2.12555
-0.1136 0.90623897 1.6799901
0.119612 0.76971698 1.57529
0.0354844 0.86836398 1.5502
0.040127002 0.87126899 1.57882
-0.45049 0.98512501 2.1292601
-0.0402481 0.883618 1.59716
0.00428518 0.873052 1.56275
-0.43065301 0.95616603 1.89151
-0.435406 0.90997601 1.39112
-0.45588201 0.97050899 1.98194
-0.43004999 0.96475101 1.9649301
-0.44213 0.89525598 1.29563
-0.82446003 1.0283099 2.1208799
-0.44063899 0.891424 1.23059
-0.33409199 0.87660903 1.2351201
-0.43574101 0.93751401 1.7103699
-0.45960301 0.95478201 1.83644
-0.43072999 0.947721 1.80889
-0.103155 0.87793303 1.5241801
-0.43404999 0.93696398 1.69647
-0.106059 0.87674499 1.49997
-0.465709 0.94438201 1.75047
-0.150521 0.88943601 1.5381401
-2.41505 1.2290601 2.0091701
-0.43682599 0.92231703 1.5322599
-0.436827 0.92589003 1.5851099
-0.031305 0.85402298 1.41572
-0.467585 0.941122 1.71512
-1.89835 1.1555099 1.96005
-0.43924701 0.91510701 1.46482
-0.468263 0.93771499 1.6652499
-0.47619301 0.92339301 1.5598201
-0.43828201 0.92290801 1.54105
-0.28367701 0.87120199 1.28
-0.47100499 0.93461001 1.6396
-0.083339699 0.85696602 1.37406
-0.15154099 0.860232 1.41137
-0.47224399 0.93067503 1.60992
-0.43753701 0.91834903 1.49894
-0.48126 0.914235 1.43432
-0.43721101 0.91034901 1.4093
-0.475611 0.92392099 1.53979
-0.47802299 0.92128998 1.49905
-0.479148 0.91753602 1.46453
-0.26456401 0.87265301 1.29084
-0.480223 0.914684 1.40962
-0.487225 0.90100002 1.28017
-0.57595098 0.89053899 1.0738699
-0.485827 0.90430599 1.3198299
-0.44543999 0.87007499 1.00642
-0.44313899 0.88532901 1.14451
-0.49112499 0.89444703 1.2151901
-0.442588 0.885176 1.14021
-0.46912101 0.88159299 1.07093
-0.46887699 0.88512802 1.11838
-0.49444801 0.88844001 1.1303999
-0.49275601 0.89039499 1.19591
-0.49426699 0.88809401 1.1357501
-0.477608 0.86887401 0.95290202
-0.475503 0.87184 0.98742998
-0.473634 0.87496102 1.02166
-2.0245299 1.00249 0.40589201
-0.13553201 0.71196997 -0.111964
-0.97061598 0.829723 0.054514602
0.59285802 0.58867902 -0.276032
0.672966 0.58838499 -0.33541301
0.52163398 0.59648901 -0.278923
0.512128 0.62239498 -0.348856
-0.48869699 0.75330698 -0.34534901
-0.086023398 0.70407897 -0.188297
0.44861799 0.699489 -0.47734499
0.31509 0.649939 -0.34346199
0.30565101 0.63504899 -0.39491901
-0.058167901 0.68000799 -0.30333999
-0.51229298 0.693106 -0.54888201
-1.11596 0.60826403 -0.062088899
-0.497866 0.73863602 -0.41614699
-1.03049 0.60890698 -0.0243135
-0.0144267 0.79901898 0.86673802
-2.01407 1.07003 1.15323
-1.90635 1.06464 1.19814
-0.16211399 0.82843399 0.92095602
-0.339421 0.85455602 1.0019799
-2.04351 1.06901 1.02566
-0.87056398 0.92569703 1.06274
-1.10258 0.96669102 1.22632
-0.47326499 0.86775202 0.935121
-0.44296399 0.85920799 0.93130499
-0.654836 0.89711601 1.0527101
-0.44225401 0.86153799 0.98614401
-0.47028801 0.86989599 0.999632
-0.44016299 0.86637503 0.98896199
-0.77308398 0.91967601 1.14961
0.331999 0.74537802 0.63451898
-0.57814503 0.89236301 1.0684
-0.676741 0.90573603 1.11731
-0.46718699 0.87279898 1.0280499
-0.48611501 0.847664 0.73380202
-0.44892699 0.84150898 0.73298699
-0.444406 0.850416 0.82717198
-0.448322 0.84732801 0.84108102
0.321464 0.72562498 0.50458199
-0.55709702 0.872679 0.93234199
0.40201101 0.78311098 0.429095
0.32303199 0.72977 0.55303001
0.42807999 0.776559 0.46886301
0.32952699 0.742311 0.58864999
0.52815902 0.777426 0.41849199
0.43128201 0.80260003 0.50241399
0.40676799 0.79188401 0.50402403
-0.47630399 0.86074603 0.87428701
-0.45737699 0.81516898 0.44598901
-0.50175202 0.82350498 0.464275
-0.45291099 0.81911802 0.459061
-0.152061 0.762739 0.37005299
-0.45846999 0.820755 0.496093
-0.59504998 0.84215897 0.56118399
-0.55136502 0.831779 0.65537697
0.31485999 0.70254803 0.25143501
-0.408894 0.814897 0.59751201
-0.490612 0.837403 0.61878598
0.316082 0.70477301 0.29443201
0.43711799 0.76098597 0.192912
0.43860099 0.76481497 0.203665
0.44203699 0.76862299 0.31039101
0.41370401 0.77024901 0.36450499
0.59184599 0.74951202 0.298181
0.32503301 0.72652799 0.46091899
0.31892899 0.72093999 0.430857
-0.45015901 0.839589 0.66038603
-0.45327601 0.83109701 0.64055699
-0.49278599 0.83568603 0.61355603
-0.455991 0.83014399 0.58550102
-0.343191 0.78162801 0.47182
-0.465159 0.76189101 -0.146171
-0.172581 0.73249102 -0.00230631
-0.89937598 0.85689801 0.35649899
-0.237509 0.75841999 0.17963301
0.70890898 0.61060297 -0.156183
0.31347001 0.68013501 0.0159759
0.53108698 0.630943 0.0109425
0.32001999 0.68489999 0.092711501
0.59417999 0.62703198 0.0051874602
0.41956499 0.72060102 -0.048565499
0.318335 0.70189798 0.18794399
0.315525 0.69013298 0.097882301
0.50665802 0.63888198 -0.051921301
-0.233621 0.75973201 0.157176
-0.891141 0.86101198 0.35676101
-0.50148302 0.821334 0.42999899
-2.0278101 1.00497 0.39016399
-1.91725 0.98499101 0.37665299
-2.05358 1.01191 0.42319801
-1.97154 1.00139 0.40536299
-0.93418097 0.83090103 0.042718101
-1.58728 0.94766599 0.36472899
-1.29188 0.91228598 0.358109
0.59091997 0.58958203 -0.201841
-0.205796 0.74480098 0.103563
0.31720501 0.66429198 -0.084594198
0.52667803 0.61559403 -0.13094001
0.65945703 0.58655602 -0.144981
0.59087801 0.61000699 -0.0985687
0.59536397 0.597799 -0.0606222
-1.03408 0.85506302 0.166776
-0.16366 0.73812199 0.0306233
-1.74956 0.96856397 0.377464
-1.32038 0.914361 0.35617399
-0.13738 0.711178 -0.117117
-0.122655 0.71989202 -0.113344
-0.50240803 0.73497301 -0.43647301
-0.072710499 0.678837 -0.34478599
-0.049154501 0.70075703 -0.237092
0.700459 0.56662202 -0.40053201
0.309313 0.65940201 -0.259951
0.314132 0.64852297 -0.35841101
0.712596 0.52487701 -0.43372899
0.64006603 0.57494903 -0.49336001
0.314217 0.65682203 -0.318037
0.70016998 0.53991002 -0.40399399
-0.54023802 0.686786 -0.54099298
-1.1102099 0.597812 -0.0728793
-1.1586601 0.619627 -0.0323065
-1.1464601 0.60034198 -0.088780299
-0.454276 0.96925098 2.0085599
-0.57376498 0.98162597 1.9790699
-0.46146899 0.95223099 1.88114
-0.48795399 0.96084702 1.90359
-0.54315698 0.97803098 1.95679
-0.55271 0.99797499 1.951
-0.87759697 1.07935 2.2917399
-0.66075099 1.04546 2.0964999
-0.45549801 0.96370202 1.94239
-0.082262099 0.87863803 1.5835201
-0.42949599 0.95581901 1.92837
-0.61587697 0.99854302 2.1219599
-0.45440301 0.96582901 1.9764301
-0.92788899 1.05252 2.1916299
-0.82523501 1.03072 2.1154001
-0.46226099 0.947667 1.82631
-0.46560299 0.944417 1.85156
-0.43302301 0.94557899 1.83788
-0.45884499 0.951765 1.8676701
-0.56319797 0.973113 1.90644
-0.84906602 1.0372 2.1566
-0.72526997 0.99509799 1.93442
-0.660384 0.98751003 1.9088
-0.32756901 0.91478503 1.63195
-0.42969799 0.93070799 1.73595
-0.43480101 0.93923599 1.74957
-0.465027 0.94524002 1.77877
-0.20647299 0.89394599 1.5517401
-0.26438901 0.90662903 1.61224
-0.100092 0.87432998 1.48876
0.0246996 0.860255 1.42416
-0.0510334 0.862432 1.44813
-0.0773343 0.86779499 1.46371
-0.38322601 0.92332703 1.7131701
-0.56005001 0.96337003 1.85224
-0.46580201 0.94223797 1.75205
-0.49639601 0.94286102 1.78223
-0.55394202 0.95377398 1.81791
-2.4186599 1.21815 1.99046
-0.181486 0.88959801 1.5751899
-0.56110603 0.96008098 1.8514
-0.44312701 0.89292401 1.29519
-0.78627998 1.00543 1.91573
-0.43788901 0.93020302 1.65378
-2.0090899 1.14969 1.9572001
-2.0046301 1.1452301 1.964
-1.75576 1.12767 1.94935
-1.53992 1.09879 1.9424599
-0.44901201 0.88941097 1.19444
-0.44256499 0.906515 1.3919801
-0.435146 0.90709901 1.48326
-0.440828 0.91337299 1.4881999
-0.43963301 0.92168701 1.5800101
-0.436759 0.92607701 1.62986
-0.471883 0.93433797 1.66791
-0.62224299 0.96663201 1.80442
-0.46989599 0.93629497 1.68417
-0.437132 0.93286002 1.68357
-0.43275201 0.93046898 1.70154
-0.30765399 0.91255403 1.60438
0.00339357 0.85432601 1.35558
-0.054421701 0.86350501 1.44595
-1.70517 1.1205699 1.96457
-0.17099901 0.87897098 1.52186
-0.14207 0.87502199 1.49146
-0.23543701 0.89692998 1.51227
-0.88620001 1.01722 1.91432
-1.42417 1.08846 1.93954
-0.44767699 0.88117599 1.12265
-0.84138 1.0013601 1.8480099
-0.45892799 0.83304602 0.636868
-1.98975 1.11631 1.7459199
-2.02439 1.13152 1.76982
-0.45842201 0.85144699 0.81351799
-0.78329498 0.99387002 1.80818
-0.449752 0.86301398 0.95512098
-0.476881 0.92294198 1.55904
-0.44962901 0.87269801 1.04954
-0.45064199 0.87873 1.0919
-0.43842399 0.91601402 1.5316401
-0.47372201 0.92548698 1.60007
-0.43765399 0.92338598 1.59796
-0.83377397 0.99365097 1.79328
-0.60887802 0.94759297 1.61729
-0.60717499 0.94784701 1.62401
-0.51361197 0.93347698 1.59513
-0.500045 0.92916602 1.60217
-0.41149101 0.91628402 1.53843
-0.47370899 0.93047202 1.63125
-0.318537 0.90214401 1.49195
-0.40432999 0.91736603 1.57385
-0.13495 0.86613601 1.38191
-0.056460999 0.85128498 1.33176
-0.091155097 0.857234 1.37802
-0.058155 0.85782599 1.37186
0.20213699 0.80763 1.23115
0.00218052 0.82585901 1.17504
-0.44972101 0.86799502 1.0032001
-0.452921 0.84944803 0.84767503
-0.44290799 0.89275301 1.2732
-0.329294 0.890742 1.35574
-0.26275301 0.875916 1.34219
-0.457385 0.84672499 0.77112597
-0.46601599 0.82583702 0.51419997
-0.483518 0.913118 1.43968
-0.481832 0.91468298 1.4540499
-1.3077 0.734685 -0.064767703
-0.27613199 0.87298 1.30442
-0.098581597 0.84486699 1.23192
-0.99811399 0.99926698 1.66896
-0.82376999 0.97971499 1.6454099
-0.76670402 0.96865398 1.63067
-0.59233099 0.93057001 1.50015
-0.27863699 0.869533 1.27806
-0.71330798 0.96868002 1.64979
-0.29662701 0.88004798 1.32576
-0.0176987 0.844199 1.30018
0.13501801 0.81640399 1.21685
0.190973 0.80317003 1.16546
-0.173766 0.85980397 1.33676
-0.204493 0.87549198 1.35692
-0.016099401 0.83809698 1.21242
-0.0544331 0.84735203 1.25196
0.0127968 0.84061402 1.23764
0.144787 0.807419 1.1580499
0.044015002 0.82962 1.26214
-0.488428 0.76386201 -0.106127
0.0705989 0.809475 1.10358
-0.41211301 0.88367802 1.2204601
-0.48892 0.90312898 1.31954
-0.48651701 0.90694302 1.38455
-0.042866599 0.82624203 1.1338
0.100338 0.79502398 0.966093
-0.049916901 0.83784002 1.15371
-0.46269801 0.817267 0.468326
-0.27391401 0.77947998 0.30058199
-0.59010798 0.90826601 1.27485
-0.78149301 0.96560597 1.48832
-0.51860303 0.902753 1.31086
-0.39967 0.88402599 1.27065
-0.20863099 0.86570603 1.25182
-0.193609 0.85805702 1.22126
-0.98400098 0.842664 0.0724537
0.134682 0.78165102 0.866036
-2.0580101 1.08868 1.16161
-0.18803801 0.84241402 1.06429
-0.268516 0.85925698 1.1067899
0.073598899 0.78440201 0.86277503
-0.0213461 0.79997599 0.865466
-0.58709401 0.90121901 1.17759
-0.652511 0.90418798 1.16043
-0.47747499 0.75172102 -0.26198801
-0.485479 0.76370502 -0.22891299
-0.182377 0.73545599 0.0174779
-2.05828 1.0813 1.1503201
-0.53049201 0.83670902 0.64752102
-0.486164 0.86467302 0.89770699
-0.477846 0.872787 1.01054
-0.32296401 0.808088 0.50936502
-0.48077199 0.86825502 0.94766903
-1.09979 0.97042102 1.2151901
-0.077203304 0.80635399 0.86429399
-0.113049 0.81257403 0.858702
-2.0467801 1.0745 1.08111
-0.27485701 0.78662801 0.34721199
-1.04896 0.85780799 0.166816
-0.046680901 0.80436099 0.86514902
-0.47581899 0.79097098 0.076774202
-0.73213899 0.84121698 0.465792
-0.487948 0.85773098 0.83167601
-0.763367 0.84763098 0.448634
-0.753501 0.85621601 0.46386999
-0.50503999 0.828174 0.50606602
-0.25067201 0.76186502 0.187052
-0.483459 0.73142302 -0.46631601
-0.33888799 0.77246499 0.45209599
-0.31642699 0.78051502 0.41931799
-0.48220399 0.739564 -0.41653901
-0.164303 0.76635498 0.37040001
-0.37272599 0.80890697 0.54626697
-0.50858802 0.823349 0.42724201
-0.85584599 0.85302401 0.41152701
-0.18295901 0.74922198 0.0741091
-0.24584199 0.77094603 0.19837999
-0.26326701 0.76506501 0.21616399
-0.22454 0.76629102 0.16435499
-0.463119 0.811589 0.362717
-0.072981901 0.70712501 -0.20404799
-0.0604073 0.70660901 -0.216957
-0.29361999 0.777978 0.377395
-1.75137 0.97103602 0.37856001
-1.86441 0.97768003 0.373606
-0.49408299 0.81186998 0.34557599
-0.090633601 0.65754002 -0.32078099
-1.70581 0.96226603 0.36596701
-0.217869 0.74736702 0.123984
-0.130675 0.70606202 -0.129159
-0.959984 0.84135598 0.0496874
-0.16161799 0.72226602 -0.070294797
-1.47317 0.93678099 0.35516801
-0.177944 0.73288399 -0.035874002
-0.077389799 0.69760799 -0.21944299
-1.1318901 0.61790502 -0.059165601
-1.04117 0.60934699 -0.031398401
-1.16008 0.619798 -0.040120199
-0.50914401 0.65968198 -0.52879202
-2.0130501 0.990547 0.28260899
-2.05849 1.01691 0.420295
-1.14211 0.65349001 -0.057441998
-1.2189699 0.73815602 -0.139135
-1.1654299 0.874511 -0.097998999
-1.1354899 0.88431603 -0.105506
-1.13682 0.87497699 -0.077470399
-1.07099 0.87440598 -0.079578102
-1.05628 0.87367499 -0.063274302
-1.0716 0.87680501 -0.063331001
-2.3363099 1.04206 0.411282
-2.2900701 1.03813 0.40881601
-2.3192699 1.02319 0.43797901
-2.4417601 1.0609601 0.42228499
-1.9689699 1.0099 0.35859501
-1.9832799 1.0107 0.36172101
-2.214 1.03029 0.402897
-2.2335999 1.0353 0.40182
-2.3864601 1.04906 0.42804
-2.3986001 1.05162 0.428119
-1.9050601 0.99940199 0.35999101
-1.92348 1.00501 0.35777199
-2.12868 1.0220799 0.394768
-2.16293 1.02668 0.39856499
-1.8486201 0.99527502 0.35487199
-2.06076 1.02043 0.38286299
-2.0899501 1.02066 0.391092
-1.63223 0.98954499 0.30531099
-1.72329 0.98412699 0.33914399
-1.73815 0.988258 0.33790901
-1.78854 0.990031 0.35020399
-1.8056 0.99270201 0.35157701
-2.0362799 1.01934 0.38291901
-1.69482 0.98243701 0.33891299
-1.72082 0.98624903 0.341351
-1.93483 1.00342 0.380474
-1.97311 1.0089 0.38423699
-1.99389 1.00813 0.39131501
-2.1131699 1.02399 0.40468699
-2.25998 1.0332299 0.43492299
-1.8543299 0.99894202 0.36877799
-1.90675 1.00158 0.38042799
-1.54319 0.97971702 0.31021401
-1.58663 0.98034298 0.32190499
-1.77276 0.99465901 0.35656399
-1.84173 0.99708003 0.373234
-1.40294 0.97648197 0.27994701
-2.06388 1.01917 0.40242299
-1.09557 0.870121 -0.067523301
-1.11184 0.866552 0.0075865001
-0.96991199 0.864654 0.0019062801
-0.98902398 0.87337601 0.0600597
-0.87793303 0.88039798 0.0252723
-0.94055498 0.89078897 0.036430001
-0.94981802 0.87916899 0.131823
-1.42284 0.94927502 0.32467401
-1.49139 0.96836102 0.31305301
-2.2656 1.02842 0.41359401
-2.35148 1.04388 0.41163099
-2.1312301 1.02807 0.38813701
-2.39487 1.05301 0.42223701
-2.09849 1.0197901 0.40617201
-2.19326 1.03219 0.41083899
-2.0568199 1.02066 0.40842199
-2.05391 1.00388 0.43204901
-2.0927 1.02394 0.40548599
-2.4325399 1.05603 0.426929
-2.1467099 1.0289 0.39067999
-2.3247001 1.03851 0.413068
-1.53641 0.97617799 0.312453
-1.43125 0.95796603 0.313784
-1.0229599 0.875471 -0.00169319
-1.15613 0.86984599 -0.046714
-1.70972 0.977018 0.35374799
-1.70085 0.97126198 0.360149
-1.95345 1.00337 0.367147
-1.86155 0.984694 0.37244099
-1.8024 0.980129 0.364676
-1.77686 0.96944398 0.37438199
-0.109907 0.69589001 -0.163351
-1.14763 0.85370398 -0.088752598
-1.02625 0.880431 -0.0231256
-0.93535101 0.86175102 0.244487
-0.90012801 0.86424202 0.270071
-0.88455802 0.86069298 0.29804501
-0.85824001 0.86728001 0.304001
-0.841223 0.865753 0.315575
-0.79000801 0.86817902 0.357701
-1.47723 0.95749801 0.323589
-1.7835701 0.98421001 0.37504801
-1.90061 0.99307197 0.38387001
-2.00582 1.00836 0.37988701
-2.04269 1.01357 0.42626899
-2.2202301 1.0340101 0.41358399
-2.2793 1.03763 0.422607
-2.30193 1.04249 0.41727901
-2.29778 1.04011 0.40464801
-2.13481 1.03303 0.396842
-2.0606 1.0182101 0.412541
-2.0915699 1.01297 0.400058
-1.84764 0.99173599 0.37934101
-1.82847 0.988114 0.383122
-1.9947 0.98492402 0.39256099
-1.7616 0.96411502 0.37989599
-1.75665 0.96329302 0.380683
-1.6809 0.96119303 0.364732
-1.6080199 0.95276898 0.36021399
-0.94727701 0.87649 0.079749301
-0.99071401 0.86519998 0.083541498
-1.1185 0.61694902 -0.066909902
-2.3275299 1.03557 0.41574699
-2.2498901 1.03548 0.39838201
-1.94903 0.97925597 0.39644101
-1.8985699 0.98101097 0.38670099
-1.55834 0.96059799 0.339252
-1.45446 0.93402898 0.352992
-1.395 0.920968 0.35839099
-1.03267 0.87242901 -0.0030050999
-1.98225 1.05825 0.95245802
-1.01919 0.60406101 -0.029986201
0.66776299 0.58796698 -0.253768
0.58573401 0.61620098 -0.35082701
0.340078 0.65039903 -0.34302199
0.36180499 0.663993 -0.282565
0.36778599 0.66240197 -0.23964299
-1.2554801 0.73221999 -0.104422
0.37354499 0.66807199 -0.15392201
0.38234699 0.67083299 -0.165975
0.39669499 0.67733198 -0.124198
0.33012801 0.67222601 -0.0601414
0.36198899 0.68338698 -0.0117433
0.38113499 0.68853402 -0.00261472
-1.1659499 0.86626399 -0.063909203
-0.333799 0.75875902 0.37044901
-0.42605901 0.81246299 0.32903799
-0.433927 0.81295502 0.379365
-0.487091 0.818564 0.36953601
-0.466903 0.81102002 0.44962299
-0.46294799 0.82530898 0.41567099
-0.785487 0.856502 0.392847
-0.69741499 0.84470898 0.444143
-0.69971001 0.85255498 0.426406
-0.754116 0.87395501 0.395289
-0.715083 0.86981201 0.41700599
-0.57049298 0.846681 0.48935199
-1.37792 0.95071602 0.31122601
-0.58828998 0.85475397 0.499511
-1.46457 0.94558197 0.33952901
-1.77074 0.96927297 0.375449
-1.70754 0.98398399 0.35527501
-1.83055 0.973966 0.37927601
-1.95847 0.98842603 0.38735101
-1.99063 1.00178 0.372538
-1.99037 1.00755 0.393765
-2.2704301 1.03359 0.40867999
-2.2339799 1.03545 0.414648
-2.41662 1.05707 0.42249501
-2.39342 1.05669 0.41408801
-2.34287 1.0477 0.40228799
-2.0578101 1.01078 0.42976901
-2.1080201 1.01327 0.40541399
-1.9133101 0.98442203 0.38312501
-1.76905 0.98091298 0.37503901
-1.79974 0.98088002 0.364254
-1.77535 0.970433 0.37319699
-1.70781 0.96917403 0.36172399
-1.66951 0.96228701 0.36263299
-1.4300801 0.93858898 0.33996201
-1.3321199 0.92337501 0.341838
-0.81498301 0.85366702 0.40114799
-0.88466603 0.851933 0.34889901
-0.92049098 0.85908097 0.28568801
-1.12284 0.866898 0.040396299
-1.11581 0.86305702 0.050406698
-1.14474 0.861377 -0.0290529
0.35289499 0.655509 -0.326013
0.60031903 0.62371403 -0.34290701
-1.0530699 0.59759098 0.010391
-1.4484299 0.94932902 0.33074799
-2.0620799 1.0775501 1.08665
-1.91396 1.0691299 1.17711
-1.98015 1.07521 1.15282
-2.0569501 1.07319 1.0851901
-1.77582 1.05304 1.16018
0.68186402 0.56461602 -0.38257
0.38724101 0.63693202 -0.46681401
0.64822698 0.60401797 -0.070078
0.42932799 0.66778201 -0.25955099
0.34079701 0.67228198 -0.15756901
0.316558 0.70100802 0.25452599
-0.180722 0.75053197 0.075131901
0.32418001 0.69944298 0.29758301
0.340312 0.717507 0.398655
0.35620701 0.72137803 0.41614801
0.44193301 0.73486602 0.42915601
-1.18024 0.87557101 -0.0404476
-1.12773 0.87190098 0.0025530499
-0.43050101 0.80697602 0.31807801
-0.45002601 0.82108998 0.324184
-0.53276998 0.80364501 0.52133697
-0.39906099 0.84160101 0.43430001
-0.94355202 0.86704999 0.332008
-0.54742903 0.803868 0.56290197
-0.64419401 0.84426397 0.43717501
-0.62866002 0.83833301 0.47734299
-0.81006902 0.86607498 0.40728101
-0.73637003 0.85979903 0.450813
-0.77263999 0.86872602 0.42285901
-0.37213501 0.83280897 0.59123099
-0.44591299 0.84901398 0.63761503
-0.32979301 0.86135602 0.650581
-0.46780601 0.84814101 0.69169199
-1.56125 0.95115602 0.34931001
-0.386296 0.857099 0.775334
-1.6765 0.96788102 0.37868699
-1.80746 0.96943098 0.377648
-1.7591701 0.97600597 0.38165
-1.91897 0.98837203 0.37998399
-1.9810801 0.99611902 0.38347799
-1.9753799 1.00687 0.38701901
-2.0618 1.0185601 0.40378699
-2.1215601 1.0184799 0.396842
-2.0596199 1.01589 0.435065
-2.1941199 1.03091 0.41059899
-2.3970399 1.0565 0.42221701
-1.93432 1.0582 1.05967
-2.0481 1.06302 1.00378
-2.01232 1.07092 1.09726
-2.0132301 1.07002 1.0943
-2.3912799 1.05261 0.420003
-2.2798901 1.0427901 0.421523
-2.3294899 1.0375 0.41457301
-2.24739 1.0502501 0.39883101
-2.06095 1.01448 0.425502
-1.9378999 1.00106 0.39072701
-1.88639 0.98711002 0.37189201
-1.75393 0.967058 0.373281
-1.5961699 0.95141798 0.36253399
-1.40653 0.92995602 0.346847
-1.17241 0.872774 -0.061110601
-1.12112 0.62337798 -0.068570197
-2.14376 1.0243 0.41889101
-1.8202699 0.97561198 0.376495
-1.76002 0.96746498 0.371694
-1.46552 0.944076 0.34078801
-1.45522 0.93242103 0.35460001
-2.1221399 1.09668 1.2637399
-2.14413 1.10084 1.24596
-2.1014299 1.09805 1.25967
0.77528501 0.52439499 -0.43758601
0.76297402 0.600254 -0.30347201
0.61765099 0.59515202 -0.052111901
0.63216698 0.59978598 -0.089543298
-0.0690955 0.65311497 -0.33481601
-0.30994999 0.77404302 0.43413499
-1.06586 0.86698598 0.023358
-0.77315801 0.84990799 0.43022001
-0.68958902 0.84949201 0.47371399
-0.70813102 0.84754801 0.47789201
-0.42004499 0.83458602 0.62663603
-0.50040197 0.84702098 0.64930201
-0.51242203 0.84645998 0.64914203
-1.6461999 0.95431501 0.367511
-1.70234 0.960383 0.378346
-1.86167 0.98189503 0.37809601
-1.88552 0.98331499 0.36903599
-1.81952 0.989887 0.383459
-1.86861 0.99413401 0.37901899
-1.92589 0.99035901 0.376537
-1.9819 0.99878597 0.375994
-2.04756 1.00404 0.39673501
-2.0575199 1.01416 0.43100399
-2.19032 1.02077 0.41295099
-2.18589 1.03064 0.41902
-2.21943 1.0367301 0.41063601
-2.4247501 1.06337 0.41744399
-2.02859 1.03825 0.75621998
-2.0148301 1.06459 1.02346
-1.93118 1.06178 1.06449
-2.0309401 1.06137 1.03493
-1.80418 1.04963 1.15391
-2.07302 1.0732599 1.081
-1.95676 1.06717 1.13503
-2.0118799 1.07224 1.12108
-1.9292901 1.0624 1.1785001
-1.90105 1.0677299 1.1944
-2.0237899 1.07333 1.1488301
-1.91994 1.0651799 1.20064
-1.84589 1.05922 1.24016
-2.0121801 1.07704 1.17874
-2.03527 1.07774 1.18321
-2.0184 1.08179 1.19204
-1.8951499 1.07199 1.2629499
-2.07094 1.08446 1.19997
-2.07883 1.08601 1.21084
-2.12146 1.08304 1.20042
-2.0480499 1.08333 1.2275
-2.04194 1.08109 1.24288
-2.0429001 1.08742 1.27033
-2.0092101 1.08527 1.3031501
-1.9814301 1.07083 1.1561
-2.06549 1.07399 1.09234
-2.02932 1.06542 1.06866
-2.2699299 1.04088 0.41619301
-2.1344299 1.0305099 0.40275699
-2.1057999 1.01258 0.40847701
-1.88727 0.98842901 0.37261099
-1.7664599 0.96818501 0.38121301
-1.46021 0.93756098 0.347453
-1.32944 0.92455202 0.34316799
-1.12603 0.61988097 -0.050600801
-2.3822899 1.0537699 0.42437199
-2.3285699 1.04111 0.41463101
0.70142502 0.56145501 -0.40004301
0.67504299 0.601408 -0.113387
0.81021601 0.52987403 -0.45556501
0.71270001 0.59628201 -0.29298401
-1.08421 0.61295199 -0.0526032
0.66202801 0.60874301 -0.071046703
0.67886299 0.61326897 -0.0136743
0.312592 0.65386099 -0.27785301
-1.20318 0.699561 -0.195813
-0.046796098 0.70764101 -0.27787501
0.32891101 0.69103098 0.116855
-1.31155 0.74045199 -0.087365299
0.30811301 0.729482 0.490134
0.64546001 0.68231601 0.800641
-0.49322599 0.80989099 0.35141799
-1.06494 0.86479998 0.041223802
0.32764801 0.76479101 0.874089
0.33024999 0.765064 0.90787703
0.32672 0.76468199 0.94244802
0.33934501 0.76731998 0.99834597
0.321403 0.76931602 0.98777997
-1.33004 0.9228 0.34344399
-0.44627199 0.84356302 0.81170899
-1.45156 0.93555802 0.35560501
-1.6494499 0.96023601 0.355598
-1.69365 0.96906698 0.38546401
-1.78767 0.96585298 0.39605999
-1.82656 0.986206 0.387696
-1.85997 0.98404098 0.40621099
-1.94643 0.99330997 0.378685
-1.93574 0.99803197 0.38671201
-2.0494599 1.0134701 0.42425999
-2.0604701 1.01436 0.41916001
-2.0589099 1.01636 0.43107599
-2.13767 1.0320801 0.40299001
-2.2239201 1.04337 0.39973199
-2.3964701 1.04953 0.41290501
-1.93519 1.0569 1.0681
-1.79206 1.04186 1.17265
-1.77514 1.0513999 1.19542
-2.06229 1.06875 1.09043
-1.98315 1.06935 1.15135
-1.92511 1.0595599 1.20169
-2.02599 1.07046 1.15157
-2.04549 1.07998 1.18863
-1.89946 1.06954 1.26351
-2.0476201 1.08135 1.19581
-1.89951 1.07019 1.26744
-1.9881099 1.07516 1.2344
-2.0910201 1.08047 1.20496
-1.94023 1.07815 1.2661901
-2.1092501 1.09076 1.20802
-2.1420901 1.08181 1.21158
0.33666399 0.62962103 -0.50398397
0.31920001 0.63813603 -0.460758
-2.0787899 1.0862401 1.2111501
-2.04895 1.07997 1.1923
-2.01162 1.07953 1.19122
-1.9305201 1.06182 1.18014
-2.04706 1.06296 1.00754
-2.0350699 1.03798 0.75105798
-0.46588799 0.81635898 0.48093
0.342801 0.756657 0.83848298
0.32111901 0.752895 0.81481397
0.327746 0.74485099 0.77408099
-0.46503001 0.806862 0.36818001
0.32288501 0.74685901 0.72435099
0.32230601 0.74226803 0.704014
0.34943399 0.73657399 0.73307598
-1.17457 0.86846298 -0.072647497
0.333891 0.73305702 0.57127303
0.33521101 0.72465998 0.51659799
0.31182599 0.72325897 0.47178501
0.34351701 0.72176498 0.48127499
0.32247901 0.716748 0.40051299
0.317469 0.71240997 0.36837399
0.32163399 0.70360303 0.239522
0.31975499 0.70037401 0.25869
0.35641101 0.69762802 0.21092699
0.34948301 0.69399798 0.23301999
0.33396301 0.68523598 0.0824304
0.32294101 0.67946202 -0.029905099
0.32756901 0.67321199 -0.067356497
0.337733 0.66881299 -0.120583
0.333992 0.66321701 -0.166492
0.37053001 0.64272898 -0.40025201
0.69716299 0.57555503 -0.355102
0.755256 0.59400898 -0.30008301
-1.07077 0.61596501 -0.067127801
0.34362701 0.638596 -0.48837501
-1.14159 0.622931 -0.032097101
0.68878102 0.60341299 -0.147295
0.324453 0.64340198 -0.41527
0.684829 0.61618102 -0.051944699
0.35041001 0.650388 -0.27213401
0.32398599 0.66209 -0.264139
-0.068449102 0.67715198 -0.32537499
0.32733801 0.67315501 -0.081687197
-0.061303001 0.712699 -0.24444
-0.065323398 0.71789801 -0.200947
0.50179702 0.67233402 0.14407
0.332205 0.684807 0.071173698
0.31913701 0.68528497 0.068758003
0.31507501 0.69572997 0.072768196
0.32740799 0.69491601 0.14726099
0.32636401 0.69637603 0.138052
-0.107681 0.73282999 -0.077311203
-0.16038699 0.73226398 -0.071853898
0.32991001 0.70209301 0.234302
0.34390199 0.70692402 0.327914
0.31552401 0.71124297 0.36079901
-0.199055 0.748927 0.140149
-0.193786 0.756935 0.094796099
0.32106999 0.715536 0.39277601
0.548702 0.68632901 0.61276299
0.314399 0.71860498 0.429919
0.273092 0.72970003 0.368251
0.60502601 0.668917 0.758533
-0.23015299 0.770127 0.18631899
0.31251499 0.72553402 0.49609101
0.53280002 0.70982897 0.68495899
0.30265099 0.73278201 0.55537498
-0.146799 0.762999 0.375947
-0.248988 0.784527 0.26126999
0.332901 0.729083 0.621939
0.319051 0.73337299 0.59978002
0.55028701 0.70344001 0.807073
0.31546301 0.73623502 0.63037801
0.310222 0.73712802 0.62565303
-1.14107 0.85816199 -0.0249711
0.307695 0.73888302 0.70271599
-0.323302 0.78386301 0.43725801
-0.494578 0.798841 0.35221601
0.544393 0.71478897 0.87639397
0.63781399 0.708103 0.954772
0.56096101 0.71117699 0.933303
0.32068899 0.746189 0.75103599
-0.460347 0.80831701 0.39283401
-0.328471 0.78577697 0.54605699
-0.45888501 0.813205 0.41026801
0.31979099 0.74912798 0.814349
0.316697 0.75015402 0.80951202
-1.01371 0.86142498 0.176524
0.313095 0.75255799 0.835352
0.30963701 0.75761598 0.81313401
-1.00911 0.865785 0.19573499
0.31013399 0.75363499 0.86607099
0.330955 0.76640803 0.91788298
0.32096499 0.76519901 0.953857
0.31968999 0.76623899 0.98106498
0.31494299 0.76814801 1.00362
0.31930599 0.77102101 1.02318
-0.43279299 0.83327502 0.671785
-0.50562 0.839899 0.66513401
-0.56986099 0.84591103 0.632532
-0.450342 0.840137 0.73018402
-0.44967601 0.84266198 0.77569997
-0.480616 0.85646701 0.82454902
-1.49997 0.942186 0.34753001
-0.50064498 0.85605597 0.87003601
-0.47897699 0.856987 0.89421201
-0.46732301 0.86098099 0.906232
-0.48164701 0.86150497 0.90174299
-0.448502 0.86648798 1.01993
-0.47138101 0.87303501 1.01528
-0.47118101 0.87139398 1.0395401
-0.46871799 0.87337703 1.05328
-0.48025399 0.87535 1.09983
-2.0111201 1.00179 0.39856601
-0.446329 0.87600201 1.1232899
-0.50983602 0.87915599 1.15064
-2.0539701 1.01265 0.428758
-0.441268 0.88383001 1.20269
-0.423388 0.88443202 1.22103
-0.49286199 0.89534801 1.29193
-1.09779 0.96450198 1.2388
-1.93783 1.0553401 1.06624
-1.77736 1.04486 1.19789
-1.96341 1.06164 1.1363699
-2.0668001 1.07356 1.09682
-1.92871 1.06122 1.17668
-2.0243199 1.07885 1.18346
-1.92141 1.06266 1.20403
-2.05407 1.00097 0.40889701
0.32451701 0.64766401 -0.34583199
0.322961 0.67440099 -0.090180099
-0.180189 0.750422 0.076370098
0.74358702 0.52669603 -0.42140499
0.76408702 0.55044103 -0.54794902
0.74340898 0.55131 -0.259662
0.68394297 0.58378297 -0.31944999
0.76165199 0.59395403 -0.30552399
0.334831 0.64157403 -0.45290101
0.71939999 0.60600901 -0.0701271
0.35053 0.64247698 -0.35146099
0.33073199 0.733464 0.59211898
-0.034119699 0.65839601 -0.35089201
0.31366101 0.66055602 -0.29345801
0.33166099 0.66806501 -0.16397899
0.32751599 0.66970998 -0.088027403
0.32124701 0.73563999 0.62588501
0.326471 0.67619097 -0.051397
-0.049145699 0.707322 -0.27509299
0.33859199 0.67752701 0.019958301
-0.077670097 0.70229799 -0.157208
0.33357099 0.68645197 0.035259798
0.327353 0.688999 0.0175387
-0.097190998 0.71639299 -0.17808001
0.33409399 0.69404203 0.131504
-0.48863399 0.74892199 -0.25869399
0.324379 0.69744301 0.17842101
-0.136122 0.73429698 -0.079146601
0.695656 0.70668697 0.206545
-0.45554501 0.81116802 0.40300599
0.326471 0.70554 0.320849
0.326024 0.70997399 0.29414201
-0.173246 0.739591 0.080922902
-0.162856 0.74847198 0.0282267
0.32005101 0.71325898 0.33425099
0.30412599 0.71610302 0.31626701
0.56191701 0.68192798 0.646887
0.32135701 0.72600901 0.43037301
-0.223095 0.76591301 0.155109
0.319543 0.72695202 0.52830398
0.31844199 0.73021001 0.55994201
-0.25506499 0.76683098 0.30028
0.30719301 0.74089098 0.55115598
0.67368901 0.69314998 0.88569897
0.53546 0.71027398 0.824853
0.52044302 0.711137 0.86037898
0.56294 0.71512902 0.88807601
0.33454701 0.74368203 0.71838301
-1.1872801 0.86365598 -0.0349195
0.31625301 0.74743903 0.7784
-1.0016201 0.83630198 0.161645
0.31518999 0.75014901 0.80430299
-1.01583 0.84326899 0.166714
0.48408699 0.73113 0.95444399
0.32953301 0.75195199 0.835976
0.33499801 0.75803798 0.88221902
0.474352 0.73961699 1.05282
0.33407399 0.76184201 0.93420601
0.32570699 0.76335597 0.95914799
-0.69414997 0.83545703 0.470916
-0.74136603 0.85019898 0.401429
0.323203 0.76424801 0.98689699
0.313299 0.77077502 0.95856702
-0.45182401 0.828273 0.57890397
0.31415999 0.76810902 1.0007
-0.44953901 0.82930601 0.63824397
-0.56446099 0.83725798 0.58409202
-0.57106 0.839719 0.57309997
0.32152399 0.77475202 1.06516
0.32233599 0.77585697 1.08938
-0.45639399 0.83582199 0.700441
-0.426972 0.840231 0.71844298
0.322945 0.784033 1.11385
-0.479018 0.84572101 0.714791
-1.416 0.92274898 0.363511
-0.44843501 0.85033798 0.85877401
-1.48344 0.93189502 0.36575401
-0.477927 0.859065 0.89211899
-1.54495 0.94289201 0.36188301
-0.44054899 0.861588 0.97926903
-0.46693799 0.86570603 0.959858
-1.7683001 0.965186 0.38713601
-1.78282 0.976457 0.389386
-0.438059 0.86920702 1.07362
-0.47468001 0.87501299 1.06537
-1.88565 0.986301 0.37206301
-1.91503 0.98151499 0.37806001
-0.47866201 0.87535697 1.0812
-1.86903 0.98517102 0.39831299
-1.9040999 0.98648798 0.38522199
-1.9413 0.98534799 0.39665201
-1.99395 1.0049599 0.36336201
-0.33774701 0.86660498 1.24354
-0.43944901 0.88075203 1.1775399
-2.0529799 0.99938601 0.41333899
-2.0578599 1.00043 0.40920499
-0.28100699 0.86464101 1.2800699
-0.505 0.87894601 1.17978
-0.31329399 0.86634302 1.28183
-0.340096 0.87593699 1.26434
-0.43894699 0.88778102 1.25
-0.478661 0.88884699 1.23593
-2.18731 1.02082 0.41372201
-2.27619 1.03149 0.41950601
-2.2532301 1.04276 0.41301101
-2.4301 1.05853 0.42891601
-2.02794 1.04187 0.77492797
-1.08232 0.96815002 1.2323999
-1.93878 1.05383 1.06868
-1.78986 1.0431 1.16672
-1.7876199 1.0455199 1.1697201
-2.06196 1.01203 0.42577901
-1.06459 0.59333599 -0.064592697
-1.14986 0.61905098 -0.025694899
0.70326799 0.58027601 -0.33639801
0.67192799 0.59023601 -0.234016
0.312076 0.64194298 -0.35978699
-0.073119603 0.65856498 -0.34860501
0.71184099 0.60223299 -0.17123
0.67863601 0.60877299 -0.065183699
0.70646298 0.61400098 -0.0358711
0.32511899 0.66156602 -0.203817
0.30849901 0.66708499 -0.229431
-0.042734001 0.694673 -0.297997
0.342244 0.66674298 -0.054488599
0.32312399 0.67170799 -0.075857803
0.32437399 0.675883 -0.0404975
0.32814899 0.678608 -0.054588001
-0.090096399 0.71635097 -0.167749
-0.46266201 0.75441802 -0.29046801
-0.145098 0.73189998 -0.077285498
-0.13121501 0.72607702 -0.0033212299
0.30784699 0.70214099 0.192092
0.31534499 0.70195299 0.237105
0.31282201 0.71027797 0.37024501
0.33210301 0.70934802 0.41200301
-0.25216499 0.76981401 0.203969
0.32183701 0.71747702 0.41862199
-0.253575 0.77356499 0.226659
0.30719599 0.71659201 0.46013299
-1.18879 0.86603898 -0.055336501
-0.93065298 0.83041102 0.105853
-1.18328 0.87251198 -0.046121702
-0.143319 0.76071799 0.37852499
-1.10417 0.86768401 0.036393099
-1.04497 0.85623699 0.109569
0.318744 0.720137 0.61892599
0.30935901 0.72688901 0.59454298
-0.28999701 0.77251703 0.435801
-0.46378601 0.800129 0.337614
-0.99549299 0.84954399 0.16437601
0.31583899 0.73038203 0.6142
0.30869499 0.73409599 0.63264501
-0.44663501 0.80783403 0.401721
-0.49995801 0.81694502 0.36961499
0.517977 0.70233601 0.80548799
0.52113903 0.715312 0.76083601
0.30644801 0.73694497 0.68383503
0.33721799 0.74062902 0.758825
-0.87893403 0.85107201 0.359081
0.31709799 0.74806303 0.76152998
-0.494266 0.821733 0.49376801
0.50553697 0.72403002 0.87366402
0.30779099 0.74994498 0.83507103
0.47168499 0.72878999 0.95996201
0.30545199 0.75405598 0.87257999
0.608307 0.70535398 1.06414
0.327391 0.75550801 0.89393002
-0.57545698 0.83499402 0.59675199
0.312778 0.76302302 0.89434803
-0.45585999 0.82911098 0.64516199
0.31725699 0.76022798 0.92676198
-0.57951099 0.84341902 0.61666501
0.45166001 0.73447698 1.03584
0.44534299 0.73507702 1.0779099
0.44873101 0.73713303 1.07223
0.308826 0.767344 1.01692
0.31461 0.76991802 1.01013
-0.454276 0.83942801 0.74552703
-0.488841 0.84520298 0.72611898
-0.481112 0.844639 0.74880201
0.30335599 0.77388501 1.03988
0.30363899 0.77241403 1.08424
-0.454 0.84412903 0.81175601
-0.48647299 0.84995103 0.792597
0.31953299 0.77829802 1.10897
