# .PCD v0.7 - Point Cloud Data file format
VERSION 0.7
FIELDS x y z
SIZE 4 4 4
TYPE F F F
COUNT 1 1 1
WIDTH 86
HEIGHT 1
VIEWPOINT 0 0 0 1 0 0 0
POINTS 86
DATA ascii
7.3042898 0.043927599 5.3610601
7.3313999 0.072622798 5.3643498
7.3757701 0.15568499 5.3666801
7.39013 0.17185199 5.3584399
7.35779 0.15203001 5.3558102
7.35816 0.146787 5.3544002
7.3695798 0.12717 5.3570399
7.3576598 0.14608701 5.3553801
7.3284502 0.060960099 5.3493299
7.3395 0.071606196 5.3584399
7.3831701 0.170506 5.3596902
7.3302202 0.0571949 5.3557601
7.3818402 0.13204201 5.3516402
7.36586 0.14576 5.3522902
7.39921 0.132376 5.3517499
7.3284702 0.073247597 5.3429098
7.4009399 0.13644899 5.3569999
7.3317099 0.0596283 5.3446798
7.3599901 0.102937 5.3520198
7.3557801 0.146383 5.3522902
7.3339901 0.085357301 5.3435202
7.3505301 0.088031702 5.3441401
7.3682799 0.13542201 5.3523898
7.3571701 0.152698 5.35923
7.3313799 0.083018802 5.3473802
7.35778 0.14917099 5.3541098
7.3235798 0.057904501 5.3513799
7.3342299 0.073718198 5.3434701
7.3703098 0.14085899 5.3540101
7.38065 0.1432 5.3527899
7.3959298 0.145642 5.35567
7.34337 0.102831 5.34795
7.3312201 0.060845301 5.3421898
7.3503098 0.086829603 5.3422999
7.37674 0.110365 5.3429599
7.3860602 0.146415 5.3496099
7.3201098 0.081149898 5.3615298
7.3945498 0.14161 5.3562398
7.3813701 0.158675 5.3587899
7.34903 0.081351496 5.3369498
7.3221402 0.0535409 5.3428702
7.3428798 0.087850697 5.3464198
7.3443799 0.094327003 5.3481302
7.3620601 0.115244 5.34867
7.4193301 0.13451301 5.3575602
7.3661098 0.126388 5.3505301
7.3345299 0.046930499 5.3393202
7.3466301 0.038495202 5.3313298
7.3621602 0.128896 5.3499799
7.3434901 0.084307902 5.3438902
7.3590298 0.120866 5.3480601
7.3961701 0.142021 5.36375
7.3401098 0.073918097 5.33986
7.38133 0.145771 5.3582201
7.37325 0.149645 5.3597498
7.33147 0.049640398 5.3450799
7.3441601 0.077113502 5.3390398
7.3894701 0.132404 5.3509898
7.3619399 0.121103 5.3483901
7.3678198 0.130174 5.3486199
7.3912001 0.142666 5.3502998
7.3575902 0.15161701 5.3555598
7.3277102 0.050013199 5.34692
7.3457999 0.115876 5.3719902
7.3083301 0.14465401 5.3667898
7.4001298 0.171865 5.35044
7.3368001 0.112255 5.3564501
7.3314099 0.0591834 5.34127
7.34553 0.047973901 5.3519902
7.33354 0.087934099 5.3530302
7.3556199 0.15203799 5.36024
7.4033899 0.146391 5.3607001
7.3916998 0.168718 5.3509202
7.3643298 0.109143 5.3488202
7.3716898 0.144695 5.3576298
7.3533401 0.084360801 5.3385501
7.3339 0.065310597 5.3473902
7.3606801 0.13104001 5.36865
7.3256202 0.079074599 5.3461699
7.32583 0.042777002 5.34586
7.3937201 0.169701 5.35358
7.38801 0.140963 5.3517399
7.3899798 0.13161901 5.3527098
7.3884802 0.13177399 5.3493099
7.3309002 0.053771202 5.3484502
7.3245902 0.076476999 5.3550401
