# .PCD v0.7 - Point Cloud Data file format
VERSION 0.7
FIELDS x y z
SIZE 4 4 4
TYPE F F F
COUNT 1 1 1
WIDTH 460
HEIGHT 1
VIEWPOINT 0 0 0 1 0 0 0
POINTS 460
DATA ascii
4.4000802 -0.98328102 4.9191799
4.3937702 -0.98221499 4.9574399
4.4127498 -0.98647499 4.8965402
4.3907499 -0.97861397 4.9158902
4.4246898 -0.995803 4.8896699
4.4094801 -0.98470002 4.9494801
4.3924098 -0.98140699 4.9828401
4.3976898 -0.986543 4.9242902
4.3762698 -0.972395 5.01898
4.3864999 -0.97960597 4.9669499
4.4210801 -0.99067098 4.91151
4.3755202 -0.97083902 5.0802898
4.3780999 -0.97314 5.0610499
4.4058199 -0.98402399 4.97155
4.40592 -0.98632699 4.9289098
4.35112 -0.96916598 5.0755901
4.3526402 -0.96304798 5.06252
4.3977199 -0.97957599 4.9951301
4.3967299 -0.98056197 4.93892
4.4212799 -0.99381202 4.8898301
4.3488498 -0.96451098 5.1416798
4.3498201 -0.96574998 5.0834398
4.3677301 -0.975299 5.0366902
4.38205 -0.98284698 5.00635
4.3902602 -0.98757702 4.9579
4.3649602 -0.96605498 5.0936999
4.3740802 -0.97142798 5.0270801
4.3790598 -0.974455 4.9836798
4.3904901 -0.98105901 4.9102502
4.3892698 -0.98055297 4.90277
4.3499599 -0.95948702 5.1041198
4.3643899 -0.96829498 5.0501599
4.3761601 -0.97515899 5.0193901
4.3909302 -0.977112 4.9628601
4.3972101 -0.98136997 4.9205298
4.3498302 -0.96031398 5.2315402
4.3407998 -0.957241 5.1872501
4.34658 -0.96171701 5.1620102
4.35465 -0.96313697 5.0887599
4.3617201 -0.96772701 5.0760298
4.3733001 -0.97644502 5.0295501
4.37463 -0.97888499 4.9934301
4.3509498 -0.95265597 5.12746
4.3561802 -0.95709598 5.0952001
4.3663201 -0.96527201 5.0419102
4.3749199 -0.97180903 5.0051799
4.3955202 -0.98440701 4.9826698
4.4026399 -0.98462999 4.9175701
4.4124198 -0.99094802 4.8986902
4.33039 -0.96151 5.2315698
4.3421502 -0.95731503 5.2182298
4.3396702 -0.95797497 5.18785
4.3537698 -0.964019 5.1374698
4.35952 -0.965029 5.0844598
4.3743801 -0.97266901 5.01511
4.3956399 -0.98254198 4.9662299
4.3926001 -0.981718 4.95224
4.40978 -0.98975098 4.89257
4.4095402 -0.98311597 4.8914599
4.3117499 -0.94620699 5.3237
4.32235 -0.949799 5.2668099
4.3252001 -0.95193398 5.25948
4.3421102 -0.95902097 5.2133498
4.3414502 -0.95884699 5.2073202
4.3517199 -0.96651298 5.1806202
4.3506899 -0.96767002 5.1366601
4.3695598 -0.98029798 5.1228499
4.3434801 -0.95263398 5.2512202
4.3454499 -0.95534199 5.21596
4.36129 -0.96871901 5.13551
4.3754501 -0.97494501 5.0613098
4.3909402 -0.980088 5.03058
4.39294 -0.98240501 5.0047698
4.4092302 -0.98955601 4.93434
4.4161 -0.99475402 4.9118299
4.3430901 -0.951132 5.1966701
4.3017302 -0.93927699 5.3652401
4.3059101 -0.94261998 5.3504801
4.3175702 -0.94714099 5.2930598
4.3196301 -0.94859898 5.2904701
4.33462 -0.955118 5.2355299
4.3353701 -0.95596802 5.2261
4.35392 -0.96479797 5.1680398
4.3615398 -0.97046101 5.1500602
4.3671298 -0.974886 5.1296701
4.3761702 -0.98184001 5.1019602
4.3542299 -0.95946801 5.1673698
4.3621502 -0.96567702 5.1392298
4.3726602 -0.97388399 5.1027398
4.37462 -0.975281 5.0994401
4.3853698 -0.97862297 5.0454102
4.3927698 -0.98414201 5.0257301
4.4063601 -0.989353 4.96732
4.4125299 -0.99371201 4.95647
4.4209499 -0.99574202 4.8921199
4.3044901 -0.94134098 5.35853
4.3071799 -0.94328398 5.3412399
4.3172402 -0.950167 5.3126202
4.3259001 -0.95077997 5.2697201
4.3331699 -0.95603198 5.2205901
4.3400202 -0.96056598 5.2129302
4.3529801 -0.963871 5.1682501
4.3576999 -0.96714801 5.1468401
4.3701 -0.975586 5.10671
4.38204 -0.97823399 5.0478301
4.3887401 -0.98269802 5.0328698
4.4032898 -0.98683298 4.9804602
4.4106898 -0.99183398 4.9544401
4.4134498 -0.99380797 4.9349799
4.2917099 -0.93480402 5.4057899
4.3023901 -0.941324 5.3668699
4.31742 -0.95077401 5.3334298
4.3217802 -0.95336699 5.3119001
4.3284202 -0.951653 5.2697201
4.3368602 -0.95668203 5.2311502
4.3448801 -0.96148998 5.1971598
4.35181 -0.965702 5.1725302
4.3566198 -0.968642 5.1562099
4.3668399 -0.96904999 5.1059098
4.3677702 -0.96959698 5.1014299
4.3846502 -0.97996098 5.0534701
4.3919702 -0.98439002 5.0277801
4.3947501 -0.98602402 5.0139298
4.4103799 -0.99546498 4.9568801
4.4162898 -0.99322897 4.9333901
4.41996 -0.995363 4.9144101
4.36025 -0.95393097 5.1343799
4.3782601 -0.96479303 5.0773602
4.3916998 -0.97272098 5.0195098
4.3975201 -0.97619301 4.9976602
4.4117198 -0.98479003 4.9558902
4.42032 -0.98955399 4.8913102
4.2802601 -0.934708 5.4502101
4.3020802 -0.94496602 5.37462
4.3032899 -0.94554502 5.3706698
4.3144398 -0.95095003 5.3352699
4.3225298 -0.95412898 5.2947698
4.3284402 -0.95661199 5.2683702
4.33814 -0.96063203 5.2238698
4.3405399 -0.96205002 5.2213602
4.3492198 -0.96619201 5.19242
4.3636999 -0.97296 5.14151
4.3682399 -0.97443098 5.1124201
4.3759098 -0.97838402 5.0927901
4.3842702 -0.98251998 5.0679202
4.3931198 -0.98583001 5.0202198
4.4005198 -0.98868799 4.9822302
4.40662 -0.99178803 4.9656601
4.2892599 -0.93452299 5.4400401
4.2951398 -0.936728 5.4085898
4.30549 -0.94271302 5.3959398
4.3095198 -0.94357097 5.3611302
4.32233 -0.95011199 5.32793
4.33006 -0.95272201 5.2807598
4.3380499 -0.95608097 5.24544
4.3453202 -0.95949602 5.22053
4.36976 -0.97122598 5.14187
4.36836 -0.96967101 5.12851
4.3730502 -0.97123498 5.0995302
4.38308 -0.97594899 5.0651999
4.3924999 -0.98021102 5.0297599
4.40453 -0.98541498 4.9794898
4.4116502 -0.98919201 4.9638901
4.41991 -0.993177 4.9377298
4.42801 -0.99675697 4.9053898
4.34899 -0.96929997 5.2000899
4.3520298 -0.97076899 5.1923199
4.3551898 -0.9698 5.1486301
4.37114 -0.97724599 5.1041899
4.3804202 -0.98130101 5.0743599
4.3838 -0.98259097 5.06076
4.3959498 -0.987517 5.0162301
4.4018698 -0.98944402 4.9877701
4.4094801 -0.99261498 4.9611001
4.4200001 -0.99628597 4.9140501
4.3094602 -0.94912499 5.3636298
4.3141499 -0.94975102 5.3281498
4.3215199 -0.95371699 5.3154502
4.3284302 -0.956469 5.2895198
4.3339 -0.95768201 5.2551498
4.3467398 -0.962403 5.2013502
4.3530598 -0.96467698 5.17415
4.35746 -0.96632802 5.15622
4.3634 -0.96830302 5.1283598
4.3762398 -0.97378403 5.0855298
4.3811102 -0.97535199 5.0619898
4.3930502 -0.980524 5.0233002
4.3969402 -0.98177201 5.0043302
4.4053001 -0.98508298 4.9727898
4.4161401 -0.98939401 4.9320798
4.42132 -0.99116701 4.9084501
4.27104 -0.92700702 5.48666
4.2828102 -0.93233198 5.4521198
4.2950902 -0.93715203 5.4054399
4.3698502 -0.97661901 5.1146598
4.3803902 -0.98101097 5.0806398
4.3864298 -0.98178101 5.0405302
4.3945398 -0.98522502 5.01512
4.3994699 -0.98664099 4.9916101
4.41993 -0.995336 4.9275699
4.4232101 -0.99495798 4.8963799
4.3164701 -0.95159799 5.31637
4.3213301 -0.95296502 5.29286
4.33147 -0.95710403 5.2592001
4.3466301 -0.96270603 5.2019801
4.3537598 -0.964876 5.1694999
4.29146 -0.93661201 5.4047399
4.2976599 -0.93964899 5.3903899
4.3087001 -0.94295597 5.3393798
4.3220901 -0.94925398 5.3052402
4.3301802 -0.95117003 5.2617402
4.34445 -0.956568 5.2094798
4.3535099 -0.95928299 5.1676302
4.3610601 -0.96382701 5.1603899
4.3711801 -0.96736699 5.1198101
4.3749499 -0.96735501 5.0886102
4.3893199 -0.97178 5.0237598
4.4170299 -0.97780198 4.9324398
4.4074202 -0.98944402 4.95996
4.33529 -0.953264 5.2449398
4.3036499 -0.94142097 5.3624902
4.28127 -0.93182701 5.43084
4.2739201 -0.93053198 5.47575
4.3612599 -0.967861 5.1437001
4.3425102 -0.96195298 5.2267399
4.3079 -0.94821697 5.3461499
4.2936401 -0.94384998 5.41082
4.39852 -0.99379098 4.99473
4.4138598 -0.992441 4.9145298
4.3998699 -0.987665 4.9825902
4.4101501 -0.98829103 4.9395399
4.4173999 -0.98734802 4.8993101
4.38659 -0.980865 5.0332298
4.3528099 -0.96755099 5.1705599
4.3442602 -0.961164 5.2024999
4.3098698 -0.95115101 5.32868
4.3175802 -0.95124203 5.2931199
4.3263602 -0.95322698 5.2667899
4.3076701 -0.94461298 5.32969
4.31113 -0.94479299 5.3147502
4.3191299 -0.94705099 5.2941499
4.3260198 -0.94739997 5.2643499
4.2783999 -0.92974597 5.4352598
4.2803402 -0.930502 5.4319201
4.2659101 -0.92277199 5.4815102
4.2897301 -0.93665898 5.3941002
4.3333998 -0.94819897 5.2356
4.3581901 -0.967556 5.1454802
4.3910198 -0.98101097 5.0137601
4.4131398 -0.98901701 4.9308901
4.3694801 -0.97444999 5.1045899
4.4075899 -0.98893303 4.91752
4.4177599 -0.99282902 4.90448
4.3882499 -0.97957402 5.0146899
4.3597999 -0.97186399 5.1243701
4.3748999 -0.967893 5.0816898
4.3497 -0.96354097 5.1709599
4.3357 -0.95732999 5.2128901
4.3078599 -0.94367999 5.3204298
4.3009501 -0.939996 5.3537798
4.3109798 -0.94084299 5.3248501
4.3235998 -0.93694597 5.2910399
4.2642899 -0.92417198 5.48104
4.2665901 -0.92490798 5.4776502
4.3153501 -0.94793999 5.2887101
4.3657598 -0.96761203 5.1105299
4.3723202 -0.97412097 5.06638
4.3990502 -0.98438698 4.9766798
4.38621 -0.98035598 5.0255899
4.4111199 -0.99291599 4.9065299
4.41361 -0.99343801 4.9028602
4.3951502 -0.98489702 4.9679999
4.38517 -0.98264599 5.0197802
4.3686299 -0.97462398 5.0858998
4.3348398 -0.96857101 5.2222099
4.3424201 -0.96227503 5.1803498
4.3369002 -0.95985502 5.2048202
4.3267899 -0.95623201 5.25738
4.3195901 -0.95205402 5.27949
4.3077598 -0.94677901 5.33114
4.3074298 -0.93910903 5.3469501
4.27071 -0.92853302 5.46136
4.3484902 -0.95823598 5.1719398
4.3541598 -0.96686202 5.1504202
4.3878002 -0.97755498 5.0144801
4.3909998 -0.98353899 4.9910302
4.4159398 -0.99849099 4.8951201
4.4179502 -0.99299598 4.8894401
4.3893099 -0.98300201 5.0061898
4.37954 -0.97895497 5.0450201
4.3826599 -0.97726202 5.03339
4.3490701 -0.97272599 5.1712799
4.3544402 -0.96752799 5.1429501
4.33178 -0.95733202 5.2270598
4.3064599 -0.94502902 5.3333402
4.2967501 -0.94272101 5.3656702
4.2776198 -0.93253702 5.4313502
4.2577701 -0.92784297 5.47715
4.26893 -0.92851901 5.4562402
4.2620902 -0.92346698 5.47335
4.2800298 -0.92264098 5.4320798
4.31741 -0.945889 5.29354
4.3382401 -0.95927697 5.2019401
4.4035902 -0.99172699 4.94943
4.3878198 -0.98553199 5.0176101
4.3809099 -0.98547399 5.0483298
4.3677702 -0.97749299 5.1034198
4.3322401 -0.96307999 5.2544098
4.27915 -0.93658203 5.4335399
4.2743602 -0.933658 5.44806
4.25809 -0.921597 5.4850998
4.3573599 -0.97650498 5.1510701
4.4173899 -0.99621898 4.8843002
4.40943 -0.99227899 4.91399
4.2958899 -0.94452202 5.3695798
4.4147401 -0.99425101 4.8917899
4.4007101 -0.98596197 4.9548202
4.3933802 -0.98563802 4.9760199
4.3737001 -0.98219299 5.0619001
4.3424301 -0.96811199 5.1972098
4.3323998 -0.96037501 5.2218599
4.3242002 -0.95700097 5.2557702
4.3068099 -0.949947 5.3281102
4.2753601 -0.932019 5.4348798
4.36026 -0.97997898 5.14466
4.3765202 -0.975815 5.05585
4.4014802 -0.99396402 4.9552698
4.3287301 -0.95925301 5.2294898
4.2999802 -0.94947499 5.3271499
4.3053098 -0.94570398 5.3269
4.2785001 -0.93689001 5.4129
4.40938 -0.99169397 4.9077902
4.3782201 -0.98290199 5.0452099
4.3243699 -0.95690298 5.2484598
4.3951201 -0.98953199 4.9793601
4.3343 -0.96548599 5.2136898
4.3157501 -0.94967902 5.2705402
4.4091101 -0.99054301 4.90203
4.3934898 -0.98661703 4.9679999
4.2708201 -0.93489498 5.4520102
4.3984299 -0.99145198 4.9609499
4.3065 -0.949072 5.3175702
4.2950902 -0.94409198 5.3587499
4.3254299 -0.95689899 5.2941399
4.33601 -0.96480697 5.26647
4.33394 -0.95845503 5.2467198
4.3482599 -0.96356601 5.19875
4.32131 -0.94764602 5.3108001
4.3457198 -0.96159703 5.2074599
4.3589702 -0.96629 5.1518102
4.3859601 -0.981924 5.0380502
4.3944802 -0.98249203 5.00383
4.4004102 -0.987194 4.9795699
4.4148302 -0.99239898 4.9197202
4.4078102 -0.986808 4.9495602
4.3692698 -0.97123301 5.0729699
4.3977499 -0.98619902 4.9324002
4.33215 -0.95360702 5.17975
4.32054 -0.94998997 5.2313399
4.31038 -0.94524902 5.2744799
4.2817302 -0.93498302 5.3969998
4.4083099 -0.99312901 4.90271
4.3222799 -0.95280701 5.2226601
4.2874298 -0.94218898 5.3723798
4.38796 -0.98633701 5.0117602
4.36973 -0.98200101 5.1007099
4.3395901 -0.96622699 5.2083402
4.3763399 -0.982216 5.06355
4.2688999 -0.92623699 5.4903202
4.3903799 -0.98027098 4.9966998
4.3915601 -0.98761702 4.9830999
4.4088302 -0.99326098 4.9162598
4.3187299 -0.94975501 5.2649298
4.4018898 -0.99089098 4.93542
4.31391 -0.953394 5.2664499
4.3048401 -0.94671798 5.3255
4.2643399 -0.93204498 5.4958301
4.2900801 -0.93693 5.3870001
4.3443899 -0.961573 5.1574001
4.38937 -0.98011398 4.9702201
4.2936902 -0.944637 5.32974
4.2754302 -0.92910302 5.4203501
4.2569199 -0.93318897 5.4890099
4.2968302 -0.95017499 5.3130102
4.3132801 -0.95100802 5.2365899
4.30723 -0.94734001 5.27563
4.2570701 -0.93734998 5.45996
4.3665199 -0.96592098 5.0289302
4.3389602 -0.95654202 5.1589799
4.28019 -0.94055301 5.3845701
4.3323598 -0.95691502 5.1719699
4.31779 -0.94892198 5.2404599
4.26228 -0.934035 5.4527302
4.2576098 -0.93094099 5.4793601
4.3805599 -0.98361897 5.0061598
4.2613502 -0.93290901 5.4675899
4.2989402 -0.94393301 5.31181
4.3235798 -0.95335001 5.21281
4.3394098 -0.959894 5.1474199
4.3193002 -0.95371401 5.2139602
4.2778902 -0.93850601 5.4070601
4.3031998 -0.95063901 5.2771201
4.2810202 -0.92745298 5.34694
4.2694998 -0.928693 5.4026899
4.2649498 -0.92126203 5.4310999
4.24894 -0.920425 5.4811301
4.4110098 -0.99872297 4.9292698
4.32409 -0.95363301 5.25317
4.3783302 -0.98008001 5.0429101
4.3525901 -0.96704102 5.1437101
4.3335099 -0.95730102 5.2210698
4.3840899 -0.98411298 5.0230799
4.4033399 -0.99486399 4.9326901
4.3606601 -0.96953899 5.1107798
4.2816401 -0.93689603 5.41294
4.2714 -0.928698 5.4539499
4.29245 -0.939632 5.3715701
4.3892102 -0.98392898 4.9875302
4.3131199 -0.94647402 5.29877
4.40588 -0.99000001 4.9279199
4.2587199 -0.924137 5.4920502
4.39959 -0.98331702 4.9591699
4.3839402 -0.98493999 4.9851599
4.34691 -0.96586502 5.1208401
4.38662 -0.97847301 4.98037
4.2877998 -0.944471 5.3641601
4.3923502 -0.98264402 4.94313
4.2810102 -0.93793797 5.3856401
4.2690802 -0.93446797 5.4542799
4.3414698 -0.95885402 5.1319699
4.3175502 -0.94899398 5.2260299
4.3277898 -0.95273 5.1874499
4.2985501 -0.94266701 5.3041
4.3041 -0.94663298 5.28088
4.3324099 -0.95628899 5.1683798
4.3136301 -0.949184 5.25488
4.3943801 -0.99228102 4.9643402
4.34582 -0.967282 5.1786199
4.2680602 -0.92854297 5.46209
4.4018502 -0.99479198 4.9465799
4.3075299 -0.95916498 5.3145299
4.37782 -0.981897 5.0531502
4.3259301 -0.959575 5.2675099
4.3829398 -0.98418301 5.0376401
4.3716402 -0.97819501 5.0666399
4.2895198 -0.93372601 5.4037199
4.3145399 -0.95515102 5.3064198
4.2999301 -0.944206 5.3481798
4.3556499 -0.96890402 5.1227198
4.3913898 -0.98533499 4.98807
4.4110198 -0.99047798 4.9086299
4.2874799 -0.93883401 5.3879399
4.3967199 -0.98701602 4.95892
4.3467898 -0.96119702 5.1589198
4.4190102 -1.0193501 5.11695
4.32725 -0.95255899 5.1961899
4.32375 -0.95477003 5.2126198
4.3051901 -0.95006502 5.2870998
4.2884798 -0.94140798 5.3499899
4.2487898 -0.920066 5.4885702
