# .PCD v0.7 - Point Cloud Data file format
VERSION 0.7
FIELDS x y z
SIZE 4 4 4
TYPE F F F
COUNT 1 1 1
WIDTH 67
HEIGHT 1
VIEWPOINT 0 0 0 1 0 0 0
POINTS 67
DATA ascii
4.5055099 0.25819901 7.7760401
4.5201502 0.28182501 7.8502898
4.5395799 0.28004399 7.8488498
4.51827 0.28748301 7.8551798
4.52033 0.284311 7.8530502
4.5318499 0.27231199 7.8242002
4.5107698 0.32147801 7.8352799
4.5254502 0.28295699 7.8427801
4.4148202 0.34633401 7.8937402
4.5289502 0.268693 7.8462701
4.5408502 0.26581499 7.8333502
4.5364299 0.268884 7.8266802
4.5412502 0.26855099 7.8204598
4.51298 0.27804899 7.83883
4.50771 0.28182301 7.83845
4.5366902 0.30445799 7.81531
4.4453902 0.34573999 7.8864398
4.5293198 0.26497599 7.8340001
4.5530901 0.26634899 7.8178201
4.5492001 0.26852801 7.8171701
4.4528799 0.34501201 7.8821201
4.4472299 0.34599501 7.8873701
4.55338 0.299054 7.8076801
4.44876 0.34437701 7.8877702
4.5134101 0.283066 7.84584
4.4560699 0.34198499 7.8836298
4.4527702 0.345395 7.8756399
4.4582601 0.31934199 7.9005499
4.4166799 0.34265199 7.8871002
4.5188699 0.26782 7.8397002
4.5290699 0.27206901 7.82974
4.5201602 0.28046501 7.8392301
4.5089698 0.28119999 7.8411002
4.5152102 0.27813801 7.8362298
4.5504498 0.26588699 7.8173099
4.5462999 0.26930401 7.8226399
4.53686 0.271429 7.8277602
4.53684 0.26666099 7.8357801
4.5102 0.28293201 7.8460498
4.5281301 0.30668101 7.8203402
4.5128899 0.313279 7.8459702
4.5260201 0.31432301 7.8214898
4.52178 0.31539899 7.82201
4.5053902 0.320337 7.83213
4.4504299 0.34140301 7.8778801
4.5493002 0.26372701 7.82868
4.5345302 0.27411699 7.83216
4.5428801 0.302228 7.8150401
4.5400801 0.30331901 7.81428
4.5197301 0.28588101 7.8459501
4.5311599 0.31325299 7.8209901
4.5186701 0.317819 7.8282199
4.4840102 0.33156401 7.8606501
4.4779601 0.33409899 7.8681102
4.4544201 0.341941 7.8817401
4.4578099 0.34044701 7.882
4.52636 0.26662499 7.8337698
4.5539398 0.297732 7.8058701
4.5165801 0.31134 7.83358
4.47332 0.328345 7.87254
4.4553499 0.34090501 7.8793502
4.44941 0.342951 7.8850198
4.4552898 0.33798999 7.8715601
4.5134301 0.31910899 7.8338799
4.5071602 0.32119799 7.8327599
4.4598799 0.33851099 7.8713398
4.45401 0.34137899 7.8770099
