# .PCD v0.7 - Point Cloud Data file format
VERSION 0.7
FIELDS x y z
SIZE 4 4 4
TYPE F F F
COUNT 1 1 1
WIDTH 89
HEIGHT 1
VIEWPOINT 0 0 0 1 0 0 0
POINTS 89
DATA ascii
-4.2899399 0.76614499 2.7235601
-4.3183298 0.77541798 2.7012401
-4.3073502 0.77320999 2.7103701
-4.2933102 0.74476898 2.48037
-4.2959199 0.75437403 2.55217
-4.3522501 0.79549301 2.72999
-4.2933402 0.75552702 2.4883299
-4.2706099 0.69412899 2.09848
-4.2863402 0.70136797 2.07253
-4.2857599 0.72065198 2.2848201
-4.27178 0.69806999 2.13149
-4.2726898 0.69811201 2.08744
-4.30514 0.747715 2.40799
-4.2800202 0.74380499 2.50331
-4.3208799 0.77065599 2.65766
-4.31914 0.77678502 2.7000799
-4.3172698 0.75492001 2.53036
-4.28479 0.73866898 2.4755001
-4.2951198 0.74984401 2.49575
-4.2849798 0.71168703 2.1501801
-4.3379898 0.73605299 2.1502099
-4.2676601 0.69125903 2.06288
-4.3236699 0.71991599 2.0352199
-4.2621799 0.68303698 1.97402
-4.34196 0.728549 2.00754
-4.2850199 0.69631702 1.99558
-4.2771802 0.73098499 2.0594001
-4.29039 0.697106 1.9506201
-4.2841001 0.68763602 1.89332
-4.29076 0.711137 2.1017699
-4.3028798 0.71304899 2.0922301
-4.2912698 0.69653302 1.9770499
-4.2923999 0.70186901 1.99932
-4.2968001 0.73596299 2.2920301
-4.2944598 0.71183902 2.1196699
-4.2883902 0.69507402 1.93459
-4.3204899 0.76283699 2.63538
-4.2951102 0.70301902 2.00278
-4.29809 0.715294 2.11713
-4.3034801 0.72105801 2.1617899
-4.3032298 0.71438301 2.13041
-4.31813 0.741355 2.3256299
-4.29703 0.71906501 2.1542301
-4.2880101 0.75828701 2.6148
-4.3224502 0.74719 2.39064
-4.2968202 0.707371 2.0950799
-4.29562 0.70227802 2.0197401
-4.3147998 0.75455898 2.44574
-4.2990699 0.755036 2.5376799
-4.2912302 0.696464 1.95574
-4.2919202 0.73453802 2.3034999
-4.30303 0.75636202 2.47614
-4.2928801 0.76412702 2.61042
-4.2968602 0.706967 2.0441599
-4.2915902 0.69962001 1.99861
-4.2884202 0.68896103 1.8873399
-4.3130398 0.757891 2.5252099
-4.2881398 0.69241703 1.93545
-4.2936902 0.73303902 2.3082299
-4.29493 0.76571399 2.6266401
-4.3030601 0.76556897 2.6256101
-4.2841501 0.693672 1.93446
-4.30549 0.73163098 2.25823
-4.2985501 0.75721598 2.52666
-4.3018398 0.73149401 2.2832699
-4.3323698 0.73488098 2.2455399
-4.2914901 0.706375 2.05427
-4.2876301 0.70033401 2.01349
-4.2894201 0.68755698 1.8871599
-4.2814202 0.69494802 1.94249
-4.2784901 0.77745599 2.5399499
-4.3695302 0.64325798 1.998
-4.2880001 0.75411701 2.52702
-4.2957301 0.74316502 2.3975999
-4.3345799 0.78109801 2.6972001
-4.29807 0.73999 2.4136
-4.2992601 0.73546499 2.3410299
-4.2937799 0.72616303 2.2757699
-4.2895799 0.723593 2.24347
-4.2895498 0.72339398 2.2153101
-4.2906599 0.74612802 2.49508
-4.2947798 0.74567199 2.51771
-4.2950802 0.75717801 2.6157601
-4.2838402 0.69225502 1.92799
-4.2872 0.694682 1.96628
-4.2884798 0.71280301 2.1593399
-4.2823601 0.70444101 2.01191
-4.2789102 0.72853702 2.23826
-4.28721 0.74795997 2.48033
