# .PCD v0.7 - Point Cloud Data file format
VERSION 0.7
FIELDS x y z
SIZE 4 4 4
TYPE F F F
COUNT 1 1 1
WIDTH 399
HEIGHT 1
VIEWPOINT 0 0 0 1 0 0 0
POINTS 399
DATA ascii
0.33288199 0.060647801 -0.41685
0.0265985 0.100878 -0.40593299
-0.0223919 0.104164 -0.41468999
0.363451 0.088509701 -0.41900799
0.23628899 0.111205 -0.383551
0.023385599 0.127671 -0.429263
0.28599399 0.137955 -0.38421401
0.37778199 0.135667 -0.39915901
0.33079299 0.140065 -0.40326399
0.239664 0.17381801 -0.38666299
0.33124399 0.17106199 -0.407801
0.28683299 0.175181 -0.38198999
0.33054301 0.183695 -0.40969801
0.38000599 0.215436 -0.406665
0.37008399 0.21635 -0.39986899
0.091196902 0.122577 -0.402825
0.27333 0.068786703 -0.41286999
0.452842 0.039882101 -0.45953199
0.34587801 0.055993699 -0.42423901
0.070953399 0.093038902 -0.41393399
0.0434485 0.095259197 -0.42426401
0.00905219 0.098269701 -0.42581099
0.27439499 0.094345003 -0.40636101
0.27958301 0.106778 -0.38598901
0.027958499 0.131473 -0.39818099
-0.017111899 0.135702 -0.43730199
-0.0230413 0.136278 -0.43860701
0.450697 0.10199 -0.37389499
0.42671299 0.110518 -0.37625101
0.37522799 0.14111499 -0.399744
0.42773199 0.141452 -0.40152201
0.34480199 0.210005 -0.42057601
0.25108501 0.27846199 -0.43691501
0.237754 0.130357 -0.40309101
0.36186099 0.092348397 -0.40339699
0.44324699 0.044676401 -0.41070101
0.406692 0.0490398 -0.400213
0.280054 0.063671902 -0.40170699
0.193929 0.0736323 -0.40199801
0.40511701 0.074805401 -0.404443
0.48912099 0.070773497 -0.405058
0.32131401 0.091710404 -0.40631199
0.464362 0.099129997 -0.39110899
0.43990999 0.102328 -0.38920999
0.240475 0.156413 -0.40879101
0.35206401 0.15451799 -0.416293
0.37295401 0.052889701 -0.40437701
0.344273 0.0561065 -0.41230601
0.248154 0.218611 -0.42187101
0.33146599 0.143756 -0.40981299
0.13888399 0.079898097 -0.410009
0.071092099 0.094743297 -0.41063201
0.355169 0.215887 -0.425753
0.43698001 0.109129 -0.38951001
-0.0240074 0.134883 -0.43455401
0.27862099 0.0970219 -0.402127
0.358293 0.080559999 -0.39580899
0.25273201 0.227276 -0.419543
0.34131199 0.21142501 -0.41914901
0.261673 0.063815303 -0.40907499
0.21754199 0.069914401 -0.41072899
0.148289 0.079465397 -0.40572301
-0.0203235 0.102771 -0.41264099
-0.0391909 0.105383 -0.41518301
0.120061 0.111822 -0.40700799
0.45663601 0.069134302 -0.38479599
0.37983099 0.13488001 -0.407334
0.33263499 0.17783301 -0.41908801
0.360625 0.200802 -0.41699699
0.25085601 0.220346 -0.41874799
0.175762 0.075648203 -0.39709201
0.35839099 0.083783299 -0.39645001
0.46427301 0.100452 -0.38191399
0.40894601 0.156425 -0.39291501
0.255061 0.21253701 -0.42023399
0.38603801 0.21044999 -0.41962099
0.40490699 0.076969303 -0.39709401
0.27028701 0.062174398 -0.403438
0.39577401 0.076873504 -0.40317401
0.333482 0.138577 -0.405359
-0.15209299 0.118874 -0.41692299
0.346172 0.053337999 -0.40155599
0.0093236696 0.13080899 -0.41393
0.106242 0.117598 -0.40878901
0.230878 0.097835302 -0.39733899
0.34239101 0.081536703 -0.40424201
0.29122001 0.13364901 -0.399461
0.30097601 0.16706 -0.40763301
0.41409501 0.045877501 -0.39895099
0.382938 0.0522906 -0.39766499
-0.0129063 0.090995103 -0.408824
0.417202 0.14663699 -0.40280199
0.48368201 0.136199 -0.38703099
0.284749 0.207618 -0.42093399
0.347523 0.212938 -0.41484299
0.458655 0.20106401 -0.42482999
0.085321702 0.11903 -0.40996
0.16907699 0.108523 -0.412947
0.099743403 0.0803499 -0.40483999
0.0089166304 0.096690796 -0.40556401
0.044235598 0.095288701 -0.40371001
0.22579999 0.076261498 -0.38911501
0.124738 0.085821003 -0.40031099
0.230575 0.124058 -0.39804199
0.070796698 0.081363097 -0.406203
0.146669 0.078675501 -0.40358999
0.2913 0.21782801 -0.4052
0.231204 0.22369801 -0.413506
0.28551 0.22489899 -0.41406399
0.164952 0.078034803 -0.402749
0.191799 0.077128597 -0.400473
0.40485901 0.0500216 -0.40018699
0.42556 0.14057399 -0.40708899
0.45385501 0.041041799 -0.40492001
0.0256132 0.122672 -0.41245699
0.22389001 0.098948799 -0.41111001
0.32994401 0.085001498 -0.40577
0.54535902 0.055970401 -0.40068501
0.288986 0.106845 -0.40774399
0.17002501 0.080613397 -0.401355
0.59911001 0.068988197 -0.377525
0.45354199 0.098015398 -0.374432
0.352393 0.135471 -0.40896401
0.37075499 0.208772 -0.42043301
0.042615298 0.083271302 -0.40774
0.351284 0.192615 -0.423417
0.35399401 0.21232501 -0.419635
0.32545701 0.32606801 -0.46488601
0.44920099 0.099088602 -0.37644801
0.43738201 0.12423 -0.40331101
0.40016899 0.079041503 -0.41711599
0.0057149902 0.089995503 -0.40723199
0.282877 0.206756 -0.41929799
0.116047 0.083651602 -0.40149301
-0.0119652 0.10033 -0.40453899
-0.020603901 0.096375503 -0.40066001
0.27043399 0.0446284 -0.397082
0.37023899 0.031215001 -0.397852
0.20568401 0.071273997 -0.401007
0.38519099 0.048151501 -0.40283799
0.34650499 0.082664602 -0.407749
0.42528099 0.073504299 -0.41307399
0.58179599 0.0528774 -0.41003299
0.334346 0.118001 -0.40975401
0.382469 0.14042801 -0.41220599
0.253308 0.21690901 -0.423585
0.17593101 0.0704813 -0.39976799
0.14165001 0.077509701 -0.40094101
0.106534 0.084521599 -0.40058801
0.22871999 0.106813 -0.405485
0.45832601 0.065218501 -0.403898
0.25367001 0.223198 -0.42252499
0.303812 0.16553099 -0.419916
0.33554801 0.15785401 -0.416013
0.45446399 0.121458 -0.39435801
0.379107 0.208754 -0.42671701
0.53426498 0.0547809 -0.39831501
0.267627 0.098521002 -0.404091
0.035638802 0.121149 -0.41594499
0.57159603 0.055629499 -0.41925299
0.110021 0.083254799 -0.40400201
0.201185 0.0994348 -0.42023399
0.16194101 0.106943 -0.41878599
0.287294 0.100117 -0.41566399
0.301622 0.128711 -0.42003599
0.35763201 0.165931 -0.42118299
0.33561599 0.196327 -0.427614
0.35963899 0.079037197 -0.412752
0.33423999 0.11415 -0.41079599
0.0123176 0.123072 -0.41521001
0.16039699 0.073663503 -0.404883
0.058391999 0.086695202 -0.40283501
0.38741401 0.208222 -0.42381001
0.35814199 0.209852 -0.428725
0.307926 0.216408 -0.435536
0.023727201 0.120749 -0.414653
0.25628 0.213829 -0.42933199
0.496907 0.033977099 -0.40854901
0.455488 0.040051401 -0.40420401
0.438261 0.071796902 -0.41001901
0.54311103 0.056064401 -0.39255801
0.34991601 0.202215 -0.42695099
0.33899099 0.12831201 -0.412222
0.36302799 0.078552701 -0.408167
0.36119601 0.0498554 -0.40334001
0.38617399 0.045747399 -0.40335199
0.125834 0.078103803 -0.41031101
0.26072699 0.066822 -0.40583301
0.290387 0.0921003 -0.41502899
0.297842 0.213798 -0.434504
0.30404299 0.165317 -0.424613
0.24841399 0.127533 -0.41422299
0.025548 0.12554 -0.41854101
0.052482899 0.120732 -0.416843
0.086877599 0.083924398 -0.407152
0.307042 0.22348601 -0.439147
0.26452199 0.0379484 -0.373292
0.27339599 0.130684 -0.41263199
0.27343401 0.145154 -0.414462
-0.0292829 0.094833501 -0.40354601
0.201015 0.068764403 -0.402509
0.087844603 0.11131 -0.41371199
0.064515099 0.116019 -0.41186401
0.13623901 0.078180999 -0.40242201
0.170499 0.070371702 -0.40131399
0.21569701 0.068282202 -0.40899101
0.182358 0.0716483 -0.406793
-0.089660503 0.136793 -0.42528301
0.112093 0.0799613 -0.405036
0.16245399 0.067715101 -0.406353
0.078727297 0.083749503 -0.404659
0.43477499 0.126808 -0.40799901
0.46963799 0.0395974 -0.40182099
0.457223 0.134354 -0.38872901
0.37902501 0.055683501 -0.40415099
0.355988 0.214174 -0.426842
0.380959 0.138253 -0.419462
0.33419999 0.175714 -0.42110899
0.36784199 0.0575727 -0.401283
0.270933 0.039935399 -0.383448
0.22693101 0.047320399 -0.381363
0.29319301 0.064014003 -0.40641999
0.261253 0.097532302 -0.40692499
0.28890499 0.156284 -0.41813099
0.289619 0.221688 -0.43164101
0.25129101 0.21466 -0.42541301
-0.0062175798 0.1016 -0.404015
0.0308645 0.095251396 -0.405022
0.109546 0.081820399 -0.40920699
0.0615399 0.090032898 -0.40755901
-0.137034 0.108959 -0.40827301
0.44007799 0.0708379 -0.41187599
0.357631 0.0478944 -0.40560701
0.43458 0.0401075 -0.405844
0.392443 0.046704799 -0.403404
0.39796501 0.075859703 -0.40189701
0.348943 0.086501002 -0.411396
0.22423799 0.0391073 -0.37967899
0.33427501 0.033616502 -0.41868001
0.25687 0.042348299 -0.39761299
0.23696899 0.093294203 -0.401501
0.22921699 0.100694 -0.405478
0.31863901 0.229147 -0.43268499
0.23989201 0.12596899 -0.410961
-0.026379 0.0899904 -0.40260801
0.185415 0.099313296 -0.41251001
-0.0056133899 0.09223 -0.403788
-0.0054466301 0.16371401 -0.434136
0.494975 0.036519501 -0.42368799
0.589082 0.067283101 -0.370956
0.39800501 0.090029404 -0.452613
0.539783 0.0970961 -0.46399501
0.30519101 0.278532 -0.446233
0.41693699 0.044519 -0.39952901
0.262905 0.240041 -0.40870801
-0.166796 0.173758 -0.43525699
0.36913601 0.058003001 -0.42189899
0.32369599 0.0336463 -0.39310199
0.25281399 0.122707 -0.41999999
0.266238 0.194282 -0.43412301
0.388998 0.083735697 -0.38330099
0.34394199 0.087159596 -0.40402499
0.257245 0.106944 -0.41911
0.44130501 0.116077 -0.40164101
0.32475901 0.13282099 -0.39454201
0.42987201 0.147967 -0.41636801
0.262189 0.222881 -0.428489
0.24858201 0.138788 -0.41656899
0.38573301 0.208599 -0.42827299
0.250732 0.21747801 -0.43209401
0.34382099 0.143536 -0.41578799
0.34506199 0.158215 -0.41859001
0.36480299 0.207101 -0.42961499
0.59953803 0.069379099 -0.39656001
0.432749 0.041973099 -0.40741599
0.432794 0.138072 -0.42757601
0.36706901 0.053647999 -0.40800199
0.372942 0.212825 -0.43749899
0.36778501 0.081064902 -0.41420999
0.32982501 0.129145 -0.41711599
0.413537 0.073132098 -0.41784501
0.27844501 0.063151598 -0.41576201
0.284502 0.0621644 -0.416706
0.230804 0.077784799 -0.408236
0.27797601 0.091035202 -0.419604
0.27237201 0.168153 -0.421619
0.281919 0.20948499 -0.43217501
0.29265699 0.115561 -0.41714901
0.31602201 0.25327 -0.443317
0.049038999 0.088978603 -0.41170999
0.042272098 0.119162 -0.41842401
0.098371699 0.080525003 -0.41319701
0.14947601 0.107904 -0.427178
-0.0131269 0.12951 -0.42374599
0.017315101 0.094217099 -0.40811899
0.121014 0.085247003 -0.42005
0.48771 0.067904897 -0.42253801
0.59131998 0.075795598 -0.38467401
0.263823 0.223251 -0.43976301
0.34831399 0.098439701 -0.41685301
0.262647 0.148141 -0.42976999
0.43800101 0.074666798 -0.43054599
0.365978 0.170221 -0.43572599
0.260782 0.149225 -0.43453899
0.26697099 0.13550401 -0.42735499
0.0097312704 0.0947932 -0.42751101
0.36177799 0.17081299 -0.42593899
0.40596101 0.069300704 -0.41437101
0.28496301 0.068328202 -0.41753799
0.139414 0.104851 -0.402641
0.00077269698 0.093244798 -0.41827899
0.353259 0.137632 -0.424795
0.36521301 0.203872 -0.43121299
0.0445631 0.094029598 -0.409601
0.123113 0.080887899 -0.411107
0.217731 0.100904 -0.436775
0.24901301 0.099152297 -0.42353901
0.265275 0.159247 -0.42771399
0.26761499 0.039872002 -0.40340999
0.31171101 0.098740898 -0.42713001
0.32271701 0.168879 -0.43325901
0.253337 0.075410001 -0.41444701
0.276795 0.071110703 -0.40739501
0.380638 0.211951 -0.43356901
0.32238299 0.21847799 -0.42813301
0.274762 0.219092 -0.42774999
0.269714 0.161584 -0.42093101
0.34494501 0.081905499 -0.40494099
0.293181 0.16685501 -0.40972701
-0.0195556 0.0986472 -0.388248
0.141913 0.10697 -0.38759401
0.36826 0.21308 -0.42541799
0.0951671 0.112614 -0.38503301
0.090252101 0.112686 -0.38536999
0.0264438 0.092880197 -0.39046001
0.38813701 0.137876 -0.414489
0.171747 0.103358 -0.388493
0.0981429 0.110752 -0.37207401
0.299898 0.062460698 -0.41906199
0.25132701 0.072991103 -0.40486199
0.160275 0.078010201 -0.40116099
0.107389 0.082429402 -0.39343601
0.27840301 0.100646 -0.40163499
0.26695499 0.162669 -0.416089
0.030714201 0.124399 -0.38315499
-0.023841601 0.13483401 -0.415245
0.28766599 0.157905 -0.41477901
0.311652 0.22228301 -0.422474
0.26956099 0.219584 -0.42660201
0.37681401 0.21027701 -0.427876
0.117408 0.110248 -0.375117
0.0100811 0.123723 -0.37688699
-0.0064691901 0.12921301 -0.4025
0.359685 0.054861099 -0.39034399
0.27763 0.066147998 -0.404318
0.233704 0.066290699 -0.40885901
0.438618 0.0783289 -0.41592699
0.36686099 0.082505599 -0.40272099
0.240271 0.089990199 -0.30070201
0.35273501 0.131449 -0.411924
0.320526 0.17377201 -0.42567199
0.36669701 0.20927601 -0.42308101
0.31708601 0.221111 -0.42407799
0.18066099 0.104436 -0.40001601
0.28423801 0.295048 -0.38374099
0.26425499 0.16933 -0.417164
0.27353501 0.222055 -0.42280799
0.34189901 0.055612199 -0.39515999
0.27889299 0.064062104 -0.39154801
0.222534 0.072578803 -0.41098401
0.151005 0.078901201 -0.40141299
0.14154799 0.078619801 -0.40192899
0.308815 0.098723002 -0.41376901
0.15233999 0.108133 -0.39410999
0.358147 0.085123099 -0.39166
0.56856799 0.125376 -0.388926
0.453228 0.136274 -0.411708
0.397342 0.208965 -0.412709
0.35616201 0.052266099 -0.37808299
0.47694501 0.14966799 -0.41425499
0.38407999 0.20679601 -0.42538801
0.260544 0.145556 -0.43559501
0.26563299 0.169765 -0.436416
0.030895701 0.123749 -0.405184
0.187535 0.104661 -0.420313
0.025924399 0.093702503 -0.41183299
0.35303399 0.085244 -0.41586101
0.25905299 0.140434 -0.42688
0.22471701 0.095003702 -0.42730501
0.26758501 0.210841 -0.43476
0.05223 0.089418598 -0.40974301
0.2366 0.071116999 -0.40883499
0.26420999 0.14542601 -0.420724
0.455365 0.0405351 -0.41868401
0.0325437 0.12048 -0.395026
0.238727 0.096960798 -0.41904399
0.26247099 0.15941399 -0.42248899
0.38300499 0.13738801 -0.41297099
0.62385601 0.068436697 -0.399124
