# .PCD v0.7 - Point Cloud Data file format
VERSION 0.7
FIELDS x y z
SIZE 4 4 4
TYPE F F F
COUNT 1 1 1
WIDTH 821
HEIGHT 1
VIEWPOINT 0 0 0 1 0 0 0
POINTS 821
DATA ascii
5.4983001 -0.31391999 1.55609
5.6230502 -0.29250699 1.51929
5.5011601 -0.297176 2.0141699
5.6023502 -0.28033701 1.45617
5.1854701 -0.292577 1.23611
5.5186601 -0.31070301 1.79338
5.5300999 -0.30262801 1.9888901
5.46699 -0.27896401 1.82702
5.2573199 -0.147459 2.0729001
5.57621 -0.189836 2.0605099
5.6469002 -0.292301 1.87859
5.0850501 -0.20218401 1.73943
5.4927502 -0.31099001 1.4912
5.5230098 -0.124586 2.1004701
5.6289001 -0.33998701 1.69595
5.4975801 -0.31409401 1.7105
5.27636 -0.149377 2.0876901
5.5451198 -0.17915 2.1986001
5.4892101 -0.27784899 1.7596101
5.3008699 -0.194416 2.1396301
5.2862501 -0.355326 0.80824602
5.3246999 -0.318317 1.08082
5.45787 -0.31664899 1.2484699
5.3626299 -0.198614 2.20749
5.2994399 -0.28247201 1.3129801
5.14498 -0.20376299 1.74786
5.5166998 -0.163406 2.1327701
5.4632902 -0.31904 1.45792
5.5180202 -0.31759301 1.27763
5.5352101 -0.38487601 1.36418
5.5098701 -0.25774601 1.76829
5.5517502 -0.38590199 1.40256
5.5028901 -0.254994 1.8116
5.3347001 -0.200313 2.1571
5.5431399 -0.17467099 2.1115601
5.20152 -0.28014299 1.25325
5.29673 -0.37849101 0.79711998
5.6162 -0.190456 2.10829
5.4861598 -0.309405 1.71565
5.2872801 -0.39063501 0.51265901
5.2609601 -0.189917 2.1056399
5.3161898 -0.23760501 1.64438
5.66258 -0.186032 2.1547799
5.3572798 -0.154936 2.1738501
5.51265 -0.29900801 2.0229499
5.09167 -0.191119 1.86069
5.29246 -0.35597 0.792593
5.5658102 -0.18239699 2.0674801
5.5044198 -0.152211 2.0448101
5.68576 -0.19808 2.0692899
5.6235499 -0.31214699 1.6727901
5.4995198 -0.172648 2.05372
5.60673 -0.25617599 1.7591701
5.5527701 -0.381488 1.65219
5.5998001 -0.188426 2.08147
5.35008 -0.15388399 2.1198599
5.5074701 -0.25868201 2.01507
5.2810402 -0.284354 1.24979
5.3543301 -0.25443101 1.54821
5.5419102 -0.27111799 1.53095
5.4973402 -0.248748 1.95145
5.5369 -0.182459 2.0683401
5.65483 -0.19491699 2.0774601
5.3050699 -0.417703 0.57972097
5.2312298 -0.25667399 1.24288
5.60044 -0.189927 2.06393
5.2127199 -0.27682999 1.3076299
5.3044 -0.32345 1.1037
5.5864401 -0.363693 1.33972
5.3717899 -0.205051 2.20069
5.3625798 -0.24497899 1.67809
5.5029998 -0.17744599 2.06141
5.57161 -0.18279999 2.07899
5.6434798 -0.17823499 2.1266501
5.29916 -0.19785801 2.1098101
5.6566501 -0.31002301 1.852
5.36063 -0.20295399 2.1694901
5.27353 -0.148825 2.0836501
5.1280298 -0.205597 1.76314
5.6191902 -0.25451401 1.7524
5.4053602 -0.151583 2.0295701
5.5025702 -0.16691799 2.0458601
5.5215802 -0.25513399 1.94912
5.3764 -0.32698601 1.1258399
5.60607 -0.26485699 1.68179
5.2832198 -0.29121 1.12146
5.6523199 -0.199865 2.07868
5.5279002 -0.18127 2.07745
5.3288298 -0.25178701 1.50538
5.5668802 -0.25463799 1.95602
5.1353002 -0.201573 1.74333
5.33182 -0.199127 2.1321599
5.6319699 -0.29800999 1.896
5.5129499 -0.25757301 2.02141
5.3259501 -0.146825 2.08564
5.5490098 -0.181964 2.0738299
5.6333299 -0.26150501 1.95344
5.3294201 -0.24671499 1.55846
5.47543 -0.176413 2.0658901
5.6586699 -0.31994599 1.85313
5.3312602 -0.206521 2.1686599
5.31393 -0.202731 2.1788499
5.32728 -0.19609 2.1896901
5.4172802 -0.163124 2.06951
5.3656802 -0.15054099 2.0515699
5.5754299 -0.19008 2.0847499
5.3536701 -0.20415699 2.16874
5.22646 -0.142895 2.09588
5.23699 -0.29917401 1.19099
5.5019698 -0.29454401 1.95759
5.3116598 -0.250415 1.54392
5.5782299 -0.26091701 1.92114
5.5799398 -0.17825501 2.0922301
5.3571801 -0.25055999 1.56355
5.2441702 -0.296902 1.1022
5.5545101 -0.18637399 2.08692
5.6248999 -0.196481 2.08655
5.5352898 -0.190657 2.0910001
5.0808301 -0.190286 1.79862
5.5495 -0.294278 1.90337
5.5427098 -0.282464 1.90134
5.3358402 -0.154015 2.07394
5.4735899 -0.17292801 2.07727
5.6654201 -0.322855 1.72857
5.2305698 -0.148801 2.10484
5.5086498 -0.33809701 1.37497
5.4995198 -0.33532301 1.3928
5.40343 -0.29406601 1.23589
5.6458802 -0.31267801 1.82487
5.63973 -0.30092901 1.81748
5.5025902 -0.262995 1.95421
5.4061198 -0.167292 2.08248
5.4720602 -0.178938 2.07798
5.6623101 -0.31628501 1.77325
5.3122101 -0.155469 2.08215
5.31423 -0.204317 2.19649
5.6199999 -0.27393401 2.0004499
5.6065102 -0.196317 2.09218
5.5515299 -0.17857499 2.08798
5.4912801 -0.291982 1.68229
5.32022 -0.19200701 2.1327701
5.2864299 -0.287824 1.24907
5.0921402 -0.189291 1.82898
5.2782898 -0.0166479 2.0211301
5.5128002 -0.176255 2.0775199
5.2925701 -0.14217301 2.0878601
5.6412601 -0.193317 2.0834701
5.6649399 -0.189714 2.0934501
5.2831998 -0.13929699 2.0922799
5.4040799 -0.16519099 2.06707
5.5672002 -0.18184 2.0854101
5.4481902 -0.16762801 2.0715401
5.4404502 -0.122025 2.0883701
5.1680198 -0.284933 1.0940599
5.2699599 -0.262499 1.4641
5.4640298 -0.29466701 1.31177
5.3501 -0.20295 2.1865101
5.65835 -0.205108 2.1020501
5.6138902 -0.198699 2.0984001
5.59057 -0.19934499 2.09887
5.3916702 -0.27354199 1.65915
5.56036 -0.26932299 1.99887
5.6445799 -0.30791801 1.7866499
5.3799901 -0.165892 2.0969601
5.45784 -0.31977999 1.4421999
5.61619 -0.310002 1.47069
5.1717701 -0.27799299 1.0991
5.3788199 -0.20367 2.1972101
5.5012398 -0.25103801 1.7810301
5.24054 -0.133325 2.0743699
5.2650399 -0.13812301 2.08356
5.6354399 -0.189052 2.08887
5.4374299 -0.161108 2.0797999
5.35642 -0.156371 2.0844901
5.5295701 -0.17948601 2.08215
5.51794 -0.177174 2.0809
5.5010099 -0.25150901 1.84575
5.3885498 -0.27122 1.65387
5.24085 -0.312702 1.27952
5.3427501 -0.160202 2.0868299
5.5569 -0.35242099 1.49275
5.37043 -0.28437001 1.2917399
5.53122 -0.2987 1.93657
5.5727701 -0.26991001 2.0380099
5.6200299 -0.19988699 2.1011
5.3785801 -0.28855801 1.57303
5.2669802 -0.25997999 1.52948
5.0904999 -0.190851 1.70131
5.0663199 -0.192771 1.68451
5.3010302 -0.207719 2.21258
5.5630598 -0.34336501 1.4964
5.3081298 -0.31196499 1.31899
3.90184 -0.17338 1.04445
3.8022699 -0.180076 0.94597602
5.5627799 -0.18897501 2.09742
5.2348099 -0.31355 1.3003401
5.4790502 -0.30216101 1.4420201
5.6019201 -0.31625399 1.47071
5.4874902 -0.18268999 2.10513
5.5650301 -0.269411 2.0533299
5.6184802 -0.198652 2.1031201
5.5527201 -0.28376901 1.97811
5.55373 -0.30043 1.95076
5.51583 -0.33637699 1.52728
5.6550202 -0.317146 1.78697
5.5054598 -0.183805 2.1021299
5.2747502 -0.33503699 0.75690103
5.3318501 -0.19984099 2.19958
5.4731598 -0.181602 2.1018
5.28899 -0.39899001 0.58492601
5.5768099 -0.19029699 2.1003699
5.4681802 -0.171864 2.1034501
5.3820701 -0.278476 1.1482
5.3003402 -0.24814001 1.52534
5.5407801 -0.33787 1.51929
5.30651 -0.309854 1.14715
5.3720298 -0.291976 1.57892
5.5058098 -0.27594599 2.0337501
5.36831 -0.212157 2.2069099
5.5190501 -0.182826 2.0994201
5.6114898 -0.197028 2.1022899
5.1069698 -0.18070599 1.73121
5.3094101 -0.212504 2.1938701
5.28827 -0.20539901 2.18172
5.4888 -0.36509499 1.4734499
5.4779701 -0.17808101 2.1024799
5.2746201 -0.234109 1.49152
3.9058299 -0.122847 1.12477
5.3453698 -0.31381899 1.1269701
5.4777899 -0.30614001 1.8978
5.6139002 -0.304032 1.89483
5.3405199 -0.210033 2.20787
5.3471298 -0.15968201 2.0942099
5.3702502 -0.28712401 1.52574
5.50179 -0.18442 2.1066999
5.2874799 -0.20667 2.18063
5.6423898 -0.30034199 1.73216
5.32831 -0.21352901 2.2174101
5.5341201 -0.288124 1.98207
5.5777402 -0.19400001 2.1050799
5.63135 -0.19521999 2.1035199
5.3430901 -0.209121 2.19136
3.67486 -0.180529 0.89475
3.9863901 -0.136962 1.2725199
5.3200302 -0.29018301 1.63184
5.3814001 -0.213001 2.1719401
5.47293 -0.294754 1.49496
5.1715798 -0.286486 1.13524
5.37468 -0.28748801 1.56107
3.7300899 -0.25569299 0.85047799
3.6057799 -0.145449 1.051
5.5072498 -0.18477 2.1052401
4.0292201 -0.144284 1.3179801
5.2884302 -0.277816 1.58281
5.3804202 -0.161191 2.0943699
5.5545301 -0.190181 2.1040699
5.3558502 -0.28287899 1.15423
5.2614498 -0.30217701 1.2127301
5.35151 -0.36454999 0.745763
5.5339198 -0.309854 1.85964
5.3909998 -0.16436701 2.0980899
5.5220199 -0.191277 2.1101501
5.3721199 -0.28698599 1.53855
5.3772702 -0.301245 1.20893
5.2847199 -0.33562201 0.80251002
5.5771999 -0.194502 2.10638
5.5124698 -0.180907 2.1013801
3.7280099 -0.27266899 0.84330797
3.78757 -0.166426 1.1095099
5.33671 -0.210951 2.19929
5.4742899 -0.17903601 2.1112199
5.5610399 -0.195181 2.10779
5.34372 -0.33862299 0.76358998
5.3840899 -0.28877899 1.52617
5.2814002 -0.258338 1.56615
5.5282798 -0.181761 2.10218
5.50771 -0.18532901 2.1067901
5.2857599 -0.27502 1.57212
3.77578 -0.16201399 1.12457
5.50424 -0.34720299 1.60706
5.37075 -0.292234 1.26825
5.30195 -0.32672301 0.80227298
5.3340001 -0.205366 2.20138
5.3804998 -0.215565 2.16748
5.3955598 -0.27114701 1.66512
5.1827402 -0.26790601 1.1171499
5.5155201 -0.345319 1.6375
5.3713999 -0.210458 2.21187
5.2512298 -0.154368 2.1145201
4.4532099 -0.363686 0.060262602
5.3863702 -0.29572499 1.4029599
5.4967499 -0.184783 2.10882
5.6051798 -0.32337701 1.42369
5.5522299 -0.185178 2.1029799
5.5914798 -0.19599301 2.10291
5.4858298 -0.360015 1.37463
5.5374599 -0.188201 2.1032701
5.5572 -0.19364201 2.1033599
3.7684901 -0.162277 1.0710599
3.6685901 -0.150287 1.10472
3.60693 -0.162295 0.921664
3.7370601 -0.267533 0.853908
3.6376901 -0.182174 0.93086398
3.7328801 -0.15912201 1.10306
3.6464601 -0.086668096 1.5647399
5.2377801 -0.316154 1.22847
5.2210798 -0.242055 1.2029901
5.3935099 -0.29918501 1.23562
5.5271502 -0.34981 1.36335
5.3756599 -0.283012 1.4143
5.4063902 -0.28820199 1.42744
5.5623202 -0.32301301 1.40613
5.5311298 -0.305516 1.85285
5.2656999 -0.29925001 1.18443
5.2922702 -0.20589 2.18115
5.43432 -0.13751701 2.0476501
5.28265 -0.27511799 1.5710599
5.5200801 -0.186459 2.10992
5.5384498 -0.185072 2.1083801
5.5725799 -0.191329 2.1089301
5.3323798 -0.247236 1.58772
5.4856801 -0.29071501 1.51202
5.5989399 -0.325692 1.36643
4.4686098 -0.37390399 0.120884
5.2903399 -0.43217701 0.59124202
5.3337498 -0.333756 0.76612502
5.2683201 -0.27079001 1.45345
5.5204501 -0.31170201 1.36994
5.5976 -0.31740201 1.4920599
5.2903199 -0.303399 1.16327
5.3168302 -0.207669 2.1935501
5.56495 -0.28269401 2.0605199
5.36098 -0.16221599 2.1117699
5.41326 -0.30977699 1.34442
5.5872202 -0.19729701 2.1117699
5.5950599 -0.196785 2.1107299
5.3460202 -0.25187001 1.61805
5.48453 -0.185947 2.1145899
5.5844998 -0.190981 2.1083901
4.0473199 -0.142946 1.48834
5.5461502 -0.40762401 1.6345299
5.3703198 -0.284031 1.54633
5.3187099 -0.245692 1.5977
5.5190101 -0.282493 1.62387
5.5250802 -0.29460299 1.85261
5.5939798 -0.287256 1.7285
5.3091002 -0.206892 2.19015
5.3485098 -0.16502699 2.1168799
5.44418 -0.17643 2.11327
5.5047698 -0.185572 2.1157601
5.5258098 -0.1884 2.11378
5.2695498 -0.27162001 1.45323
5.2865601 -0.20568 2.1812899
5.3812799 -0.29671699 1.32297
5.3137498 -0.24388701 1.59946
5.5996499 -0.333924 1.38862
5.6452699 -0.201052 2.1108799
3.7428601 -0.17721599 0.94107401
5.5924702 -0.195526 2.1132901
5.3259602 -0.335361 0.80202103
5.2223601 -0.31295899 1.17637
5.26196 -0.30145901 1.20011
5.32445 -0.31383401 1.2127399
5.3078198 -0.30758601 1.22106
5.3340402 -0.286102 1.5642101
5.3866701 -0.295378 1.49317
5.4127498 -0.28998899 1.44956
5.4874501 -0.29202899 1.5185601
5.37181 -0.25392699 1.6179
5.57792 -0.18916 2.11079
5.52139 -0.28552601 1.55294
5.5574198 -0.291096 2.0102401
5.3874898 -0.216351 2.1719699
5.3793101 -0.21568 2.18541
5.5426698 -0.189715 2.1149199
5.57724 -0.192665 2.11251
3.6293299 -0.177615 0.92285401
5.5303702 -0.303846 1.89861
5.53477 -0.30869901 1.8467799
5.6057 -0.31702 1.50644
4.4530401 -0.382635 0.086490802
5.27847 -0.25396401 1.51838
5.6013198 -0.26249501 1.90522
5.5439501 -0.261125 1.87362
5.5152502 -0.18299399 2.0987
5.5449901 -0.18946099 2.09817
5.45541 -0.169934 2.09815
5.5843501 -0.197927 2.09424
5.5603099 -0.30608001 1.96819
5.27914 -0.25178999 1.4895999
5.2599902 -0.297158 1.13748
5.3701501 -0.209987 2.1810701
5.18578 -0.26323 1.10357
5.62218 -0.27157 2.06844
5.3661098 -0.200461 2.19189
5.6021399 -0.19538601 2.09956
5.4915299 -0.180446 2.10604
5.58355 -0.19882201 2.1008601
5.4418802 -0.16549499 2.1055601
5.6146102 -0.306357 1.9409
5.33811 -0.248952 1.61822
5.5427299 -0.305989 1.66678
5.5150499 -0.278088 1.6705199
5.5128298 -0.31367499 1.8364
5.53898 -0.313189 1.86979
5.5644398 -0.28917 1.7526799
5.6153898 -0.284951 1.6417
5.6127 -0.28556001 1.65053
5.4899702 -0.30474401 1.93216
5.6050401 -0.31994599 1.51747
3.7128699 -0.15572 1.09648
3.8293099 -0.091190897 1.62554
3.96454 -0.13099299 1.35592
3.9296801 -0.0949599 1.52143
4.052 -0.12608799 1.4921
5.2399502 -0.31671599 1.21498
5.2610998 -0.301503 1.2076
5.3678498 -0.35720101 0.77060002
5.3611698 -0.34803799 0.79323
5.3547902 -0.314767 1.17686
5.3663201 -0.31457299 1.1774499
5.4148002 -0.295959 1.3031
5.3185701 -0.280334 1.57798
5.2812099 -0.26080799 1.58057
5.5376701 -0.37239099 1.52853
5.3801999 -0.291217 1.59007
5.1499801 -0.182162 1.7338099
5.4096899 -0.280974 1.57013
5.4045401 -0.27451101 1.57671
5.47262 -0.28238001 1.45323
3.7237301 -0.176644 0.95105797
5.4793901 -0.301671 1.40655
5.3859701 -0.28786299 1.5829999
5.4822998 -0.27991599 1.46324
5.4743199 -0.28674901 1.45555
5.3769698 -0.27227601 1.60557
5.3689599 -0.34259599 0.787669
5.3945498 -0.323024 1.38345
5.4525299 -0.33794901 1.3703099
5.3200698 -0.27716401 1.56428
5.4559498 -0.32524699 1.3515199
5.4121499 -0.28826201 1.30234
5.3967299 -0.30925801 1.48262
5.27279 -0.24038 1.5513099
3.9358001 -0.128369 1.30565
3.95841 -0.113466 1.49819
3.9632101 -0.10118 1.57962
4.0276999 -0.115161 1.5159
5.2511401 -0.41600299 0.56649798
5.28016 -0.403828 0.56467903
5.2962599 -0.39864099 0.55997699
5.1071401 -0.224112 1.743
5.2428398 -0.30742899 1.17812
5.2933798 -0.293401 1.23169
5.5153298 -0.27529401 1.67241
5.5440798 -0.28847399 1.64948
5.5400901 -0.31168401 1.86813
5.57797 -0.32002401 1.57339
5.5623798 -0.31924799 1.33851
5.4849501 -0.28808099 1.5037301
5.3659801 -0.34753001 0.78837103
5.27842 -0.284895 1.33508
5.43857 -0.331247 1.35727
5.4507499 -0.32840601 1.35443
5.3983798 -0.31052399 1.43372
5.3120499 -0.27740401 1.56924
5.38203 -0.29132801 1.58925
5.4709401 -0.29371101 1.4255199
5.38871 -0.260028 1.6368099
5.3422499 -0.25933799 1.6337
5.3636699 -0.31682 1.16855
5.2339001 -0.38500199 0.57553899
5.3464599 -0.33353999 0.81800199
5.24684 -0.304941 1.15356
5.2831402 -0.26936299 1.56563
5.12743 -0.19764499 1.32717
3.63779 -0.151214 1.37614
3.6491399 -0.138253 1.26612
3.9428899 -0.132001 1.3275501
3.9605501 -0.141761 1.1607
3.9509399 -0.118371 1.4334199
4.4416199 -0.37619299 0.051762398
3.9928401 -0.111248 1.5181201
4.0982099 -0.13549501 1.50509
5.2149901 -0.28599399 1.25058
5.1800499 -0.27714899 1.19445
3.78654 -0.181437 0.95957202
3.96069 -0.089044303 1.5752701
3.80109 -0.15845101 1.09569
4.0495801 -0.129354 1.5089099
4.1248698 -0.14193 1.45979
3.9461701 -0.0978752 1.49753
3.9565301 -0.0951107 1.5698
3.9447801 -0.114706 1.46811
3.7005999 -0.15865199 1.11394
3.72662 -0.26569399 0.86569703
3.6495099 -0.12544 1.29629
3.96296 -0.15747701 1.06938
3.9930899 -0.14135601 1.25954
3.9841499 -0.13634001 1.2045799
4.0575199 -0.124204 1.54956
4.0708799 -0.129178 1.50625
3.9590099 -0.131538 1.32698
3.9486001 -0.115504 1.41751
3.95913 -0.119215 1.4842401
3.7302301 -0.105788 1.3657399
3.8721199 -0.130219 1.2701
3.9596901 -0.172773 1.02772
3.9556301 -0.131354 1.35013
3.9495201 -0.10592 1.5340101
3.95016 -0.100878 1.57766
3.9409599 -0.14851201 1.09342
3.7253201 -0.26573601 0.86201602
4.0653501 -0.12777101 1.50484
3.7599299 -0.19360501 0.94238698
3.7060299 -0.155742 1.1042
3.6043 -0.0767745 1.62658
3.77403 -0.179243 1.0305901
3.7479 -0.164607 1.11128
5.52246 -0.27079201 2.0122399
5.4728799 -0.37636599 1.4025
5.18255 -0.28097099 1.15733
3.9479001 -0.148682 1.1374201
5.6429701 -0.30045301 1.77797
5.42978 -0.30105501 1.53571
3.7353899 -0.242153 0.77183098
5.5947399 -0.32029 1.46216
5.3186598 -0.16378599 2.11658
5.24122 -0.38841 0.51180202
5.2985001 -0.331716 0.79553699
5.4828701 -0.30302599 1.49167
5.60778 -0.19716001 2.10537
5.6543002 -0.203706 2.10376
5.5418401 -0.19170301 2.1077099
5.4936299 -0.18493301 2.1092899
5.5009398 -0.18066899 2.1094999
5.5374298 -0.184332 2.10848
5.3828802 -0.214606 2.17891
5.3323598 -0.25518501 1.59725
4.4302602 -0.38614401 0.076208301
3.88043 -0.121649 1.1471699
3.74681 -0.170137 0.96797103
3.64077 -0.202674 0.87796801
3.8838699 -0.18200099 0.97313303
3.90817 -0.172401 0.98844302
3.9180701 -0.144076 1.05975
3.9502201 -0.101121 1.55909
3.99176 -0.13959201 1.22323
3.9784501 -0.0530525 1.37946
3.94783 -0.103408 1.52608
3.9484701 -0.114016 1.48369
3.95257 -0.12944201 1.3576699
3.78688 -0.14855701 0.92954898
3.5998199 -0.23944101 0.86081702
3.7227199 -0.267169 0.860475
3.6571 -0.190566 0.92856997
3.6262901 -0.083386801 1.65326
3.7780499 -0.168795 0.89663202
3.7976799 -0.13942701 0.953399
3.8717101 -0.136886 1.12862
3.92083 -0.141748 1.15107
3.9249001 -0.130439 1.26555
3.94666 -0.13294099 1.33995
3.9423399 -0.113479 1.48717
3.9486401 -0.12974 1.32884
3.9365799 -0.091136999 1.60642
3.9039299 -0.136353 1.02248
4.0253701 -0.137778 1.2401201
3.7035999 -0.28026801 0.84665197
3.63255 -0.16972999 0.97515202
3.6229899 -0.163554 0.98518699
3.7534399 -0.134774 0.916363
3.9062099 -0.169654 0.98415202
3.9445801 -0.097537503 1.58803
3.9451699 -0.099938497 1.5424
3.95292 -0.136252 1.30498
3.94452 -0.122304 1.36338
3.93607 -0.140927 1.11093
3.94223 -0.114326 1.43898
3.80211 -0.163508 1.08444
3.7574301 -0.17539801 1.01244
3.7009699 -0.070982903 1.5587
3.9474001 -0.129913 1.32513
3.6387999 -0.151623 1.10436
3.4614401 -0.183467 1.69572
3.6331999 -0.216516 0.89578003
3.62621 -0.16087 1.01415
3.7453499 -0.18004 0.97565699
3.8254399 -0.12885401 1.12644
3.85987 -0.130651 1.1205699
3.94436 -0.125981 1.40328
3.94052 -0.108438 1.48482
3.94028 -0.108006 1.46121
3.94168 -0.12165 1.36724
3.92926 -0.14103501 1.11775
3.9298699 -0.129417 1.18265
4.0594401 -0.139827 1.4457999
3.94769 -0.098229803 1.53899
3.9465899 -0.097214296 1.5657099
3.64569 -0.184048 0.91302103
3.6206701 -0.080734797 1.582
3.7051301 -0.26837099 0.83952302
3.9356501 -0.123645 1.31049
3.94681 -0.131437 1.33198
3.9427299 -0.088435203 1.57495
3.94592 -0.099868402 1.5241801
3.94525 -0.118914 1.44437
3.9442999 -0.097285002 1.5826401
3.6326499 -0.175933 0.95178699
5.5620198 -0.19083799 2.11395
5.5872202 -0.18392301 2.1045001
5.5917401 -0.19369499 2.11306
5.50453 -0.121595 2.0183201
5.47715 -0.179785 2.11498
5.6193399 -0.302903 1.93279
5.6251402 -0.30076399 1.92505
5.3317599 -0.207872 2.1993101
5.5679302 -0.33468401 1.35857
5.3374701 -0.25145599 1.6158201
5.3524499 -0.253934 1.61685
5.60216 -0.32166499 1.52652
5.5353999 -0.298691 1.66966
5.5490499 -0.31493199 1.86269
5.55404 -0.28712201 1.7365299
5.6177902 -0.294361 1.64871
5.4920702 -0.305911 1.9315701
5.5335002 -0.30594 1.89555
5.5190902 -0.288546 1.55489
5.38063 -0.2881 1.57813
5.4720602 -0.291971 1.43086
5.4162798 -0.31001899 1.3374799
5.33498 -0.281185 1.57389
5.4067998 -0.27052501 1.57982
5.2597299 -0.30250099 1.20983
5.2849102 -0.420753 0.592336
5.2714801 -0.300574 1.20265
5.3438001 -0.313225 1.2006201
4.4425302 -0.34634599 0.078908697
3.9413199 -0.120241 1.36509
3.8912399 -0.133278 1.10874
3.64451 -0.21779899 0.91792202
3.6262 -0.070284501 1.62594
3.701 -0.039726399 1.3612601
3.83109 -0.095477998 1.32489
3.8764501 -0.16109399 1.09622
3.9384301 -0.092445001 1.60171
3.93888 -0.103945 1.49063
3.9291501 -0.120296 1.2867301
3.9144199 -0.136016 1.11298
3.9365599 -0.118062 1.28139
4.0882602 -0.151758 1.46452
3.91627 -0.13188399 1.14412
3.9382801 -0.12537301 1.31833
3.9382999 -0.100745 1.53026
3.7616701 -0.17296401 1.01766
3.75492 -0.062457498 1.64423
3.7494299 -0.1812 0.98602003
3.6173601 -0.142075 1.01645
3.62235 -0.088524103 1.54302
3.60025 -0.072434403 1.62893
3.93714 -0.114931 1.39727
3.74579 -0.17375501 0.95982403
3.6398101 -0.088923298 1.5848
3.8643799 -0.134459 1.09228
3.9507201 -0.13560501 1.2248501
3.9571199 -0.137494 1.24112
3.95029 -0.131487 1.2229199
4.00666 -0.136328 1.22438
3.6059 -0.203407 0.914029
3.58248 -0.18853401 0.92284799
3.5956399 -0.157152 1.00529
3.5969801 -0.153459 1.02784
3.6202099 -0.18014599 0.905339
3.6229401 -0.166687 0.953646
3.6611099 -0.079573497 1.3212399
3.73035 -0.089032799 1.4668601
3.76933 -0.169882 1.03031
3.8336101 -0.092257597 1.64259
3.7590001 -0.0582387 1.39203
3.8057301 -0.090115704 1.2953
3.93717 -0.110631 1.49639
3.9363501 -0.097050197 1.56398
3.93612 -0.10031 1.52459
3.9398899 -0.107251 1.4815201
3.9389501 -0.108686 1.44879
3.93716 -0.118501 1.36874
3.9369099 -0.097837098 1.54057
3.9367399 -0.092645302 1.56695
5.3664198 -0.209483 2.2086599
5.35779 -0.206496 2.20978
5.3262801 -0.20697699 2.19595
5.6143098 -0.196723 2.10763
5.5755701 -0.321273 1.4864399
5.3250599 -0.28028101 1.57832
5.5819702 -0.194132 2.1092
5.39187 -0.29848099 1.4032
5.5634198 -0.191893 2.10969
5.4442801 -0.176864 2.1147499
5.4681401 -0.18052299 2.1126599
5.5764599 -0.19709501 2.11024
5.6063099 -0.330713 1.38793
5.3891401 -0.212787 2.17941
5.3833098 -0.215491 2.17958
5.4699502 -0.29337499 1.40047
5.5279999 -0.402289 1.33965
5.4077501 -0.27947199 1.4893301
5.2191501 -0.30787599 1.2137901
5.2783799 -0.345112 0.762739
3.7180901 -0.18702801 0.90054399
3.6487 -0.150785 1.08585
3.7430899 -0.156249 1.07086
3.65183 -0.0683164 1.59547
4.1276598 -0.15134799 1.54763
4.0531201 -0.127344 1.44302
4.0517101 -0.130887 1.4359601
3.60026 -0.196529 0.91473901
3.58338 -0.18621901 0.94145501
3.7572999 -0.117218 1.16164
3.81968 -0.080667801 1.32143
3.93733 -0.100948 1.51818
3.93841 -0.113451 1.40005
3.94065 -0.111365 1.4596
3.8622899 -0.096753001 1.4268
3.76876 -0.13402399 1.16606
3.63609 -0.101841 1.5430501
3.8522899 -0.112239 1.56528
3.9327099 -0.087739699 1.6052099
3.6637399 -0.069786198 1.5597399
3.7525799 -0.19863801 1.47506
3.7579401 -0.056270301 1.39397
3.8640001 -0.128622 1.53563
3.9031 -0.095444098 1.5376101
3.6347101 -0.080608897 1.6096801
3.6596501 -0.089048199 1.32232
3.74388 -0.076251797 1.4673001
3.8594799 -0.182248 0.99294102
3.9322801 -0.16694801 1.00016
3.9391201 -0.100691 1.5004801
4.039 -0.141454 1.24714
3.9203899 -0.139314 1.0730799
3.98931 -0.196031 1.5597399
4.0921698 -0.148261 1.44305
3.6141701 -0.17349499 0.94176197
3.6175301 -0.177018 0.92611402
3.79579 -0.15635 1.0846699
3.91255 -0.121621 1.2555799
3.93731 -0.102276 1.4783601
4.01015 -0.096575998 1.47674
3.64464 -0.13943399 1.05286
3.75105 -0.105479 1.15481
3.9309499 -0.088213198 1.57605
3.8020699 -0.068900801 1.64928
3.6187999 -0.076958701 1.57215
3.62028 -0.0833252 1.61962
3.7495501 -0.163844 1.10756
3.6032701 -0.075893603 1.61277
3.6205201 -0.167491 0.96893197
3.6136501 -0.149874 1.0129499
3.7657599 -0.127811 1.16602
3.88605 -0.10333 1.45481
3.8910699 -0.100767 1.4731899
3.93736 -0.099043101 1.55536
3.93718 -0.10073 1.5261
3.9417601 -0.105976 1.4630899
3.9381299 -0.095882297 1.55836
3.93454 -0.092567697 1.59655
3.9347701 -0.087537602 1.58864
3.93713 -0.096142299 1.5706
3.7390101 -0.084847704 1.46933
3.6270101 -0.089820102 1.54565
5.35286 -0.34597501 0.80301702
5.3845501 -0.304052 1.31969
5.2692399 -0.26252401 1.49756
5.2667799 -0.28944901 1.23379
5.3596301 -0.312751 1.37667
5.2562599 -0.30228499 1.1837699
5.29387 -0.398684 0.55545598
5.2806201 -0.34459001 0.78873098
5.3459101 -0.34665501 0.80542397
5.3011098 -0.33140299 1.09499
5.1795902 -0.28980401 1.20292
4.4298501 -0.382664 0.137904
3.9424701 -0.099186502 1.54921
3.6358299 -0.145725 1.37501
3.84776 -0.192489 0.95425302
3.9400699 -0.129326 1.30744
3.7492001 -0.17982 0.99052101
3.7134199 -0.15456 1.0887901
3.9212601 -0.114143 1.4680001
3.9303801 -0.113054 1.43506
3.93014 -0.116631 1.3971
3.9130299 -0.109192 1.56283
3.6070099 -0.087690301 1.59882
3.65414 -0.169567 1.16635
3.8767099 -0.16250101 1.09491
3.90748 -0.180498 1.0542901
3.8833201 -0.160322 1.05422
4.0599298 -0.13724799 1.43275
3.9507401 -0.127762 1.22735
3.8592501 -0.136695 1.12273
4.0275798 -0.124234 1.50877
3.6329899 -0.181638 0.89714801
3.9403901 -0.115464 1.46777
3.9387 -0.100373 1.54259
3.9078801 -0.12932 1.25621
3.9358699 -0.122988 1.34085
4.0211 -0.088472202 1.4581701
3.9423399 -0.097179003 1.54899
3.5725 -0.0785423 1.3298399
3.9390399 -0.098954901 1.55135
3.93466 -0.119214 1.3567801
3.9335799 -0.108222 1.4828
3.9386101 -0.108016 1.4779201
3.74842 -0.127921 1.15038
3.93785 -0.121424 1.42706
3.9366701 -0.113206 1.4197201
3.6194999 -0.16683701 0.96694303
3.62256 -0.169964 0.95910102
3.93173 -0.093224302 1.58016
3.6233201 -0.082770102 1.6542
3.5911901 -0.118782 1.76607
