# .PCD v0.7 - Point Cloud Data file format
VERSION 0.7
FIELDS x y z
SIZE 4 4 4
TYPE F F F
COUNT 1 1 1
WIDTH 170
HEIGHT 1
VIEWPOINT 0 0 0 1 0 0 0
POINTS 170
DATA ascii
7.4556599 0.36069199 5.2671399
7.4275098 0.34100601 5.2474699
7.4469399 0.34937 5.2660198
7.4657898 0.359896 5.2516098
7.4523802 0.35157999 5.2402
7.4995499 0.40368599 5.3606501
7.4492998 0.348254 5.23419
7.4559398 0.356345 5.2437801
7.5079398 0.41302499 5.3276
7.4665999 0.41583499 5.2072101
7.4593301 0.35815299 5.2863498
7.53159 0.41417199 5.34233
7.47051 0.41174901 5.2058501
7.46556 0.36010101 5.2813101
7.5470099 0.424364 5.3245902
7.47716 0.41301799 5.2631698
7.4643102 0.41386199 5.2002702
7.5009098 0.41287401 5.3073602
7.4573798 0.35725501 5.2586198
7.45502 0.353789 5.2495098
7.4967899 0.41555199 5.3027802
7.4771099 0.41121101 5.2498498
7.5397902 0.41662201 5.3398299
7.46771 0.36089799 5.2856898
7.4615402 0.40791801 5.2066202
7.4923801 0.41493899 5.2591
7.4962902 0.42344701 5.3208299
7.4753098 0.41570699 5.2222099
7.5385499 0.41817799 5.3371301
7.46207 0.35646001 5.2448902
7.46486 0.41736099 5.2202401
7.4473901 0.34762099 5.2332101
7.4773102 0.36232001 5.2819901
7.4635901 0.36462301 5.25318
7.5281701 0.41934499 5.3535299
7.4591298 0.354983 5.2433801
7.4516401 0.354343 5.2349501
7.49821 0.36495599 5.3101702
7.49124 0.41220999 5.2863998
7.5169902 0.417294 5.3379102
7.4869299 0.36141399 5.3053098
7.4839902 0.415925 5.3241701
7.4665699 0.41302601 5.2205901
7.4607201 0.354918 5.2451
7.4575801 0.41085199 5.20362
7.4753699 0.41354701 5.2456398
7.5282698 0.41143599 5.3464198
7.5173502 0.41443801 5.3374701
7.4805002 0.415676 5.3234801
7.45783 0.40620899 5.2052999
7.5222702 0.409805 5.3395801
7.5113702 0.41612899 5.32195
7.4921598 0.41344801 5.3029599
7.4802999 0.41345799 5.3218498
7.46698 0.41259801 5.2368698
7.45263 0.35359001 5.23388
7.4795399 0.41089001 5.32693
7.4584198 0.35730299 5.2449002
7.46487 0.41349199 5.2568698
7.5102801 0.416004 5.3215899
7.4534702 0.353609 5.23807
7.4530301 0.34369001 5.2293301
7.4565101 0.35346699 5.2393699
7.4796901 0.412642 5.3186998
7.47543 0.362636 5.2750902
7.47999 0.40899599 5.3296499
7.4517202 0.40545201 5.2072501
7.4562602 0.40992999 5.2245202
7.4635901 0.35740799 5.2474499
7.4721599 0.369017 5.2806301
7.4967299 0.36286101 5.3092799
7.4726601 0.36344901 5.2623401
7.4522099 0.35093299 5.2374401
7.4622898 0.35975999 5.2599401
7.4620399 0.41212401 5.2168899
7.4635601 0.36278901 5.2838602
7.5342698 0.42014101 5.3405299
7.51689 0.41993001 5.3157802
7.45432 0.354045 5.2491298
7.4594402 0.41552401 5.1838598
7.4698701 0.359653 5.2667298
7.4752402 0.41927901 5.2312899
7.4967198 0.41714099 5.2972498
7.4535398 0.35664701 5.2508702
7.4648099 0.36109799 5.2779198
7.47159 0.36028001 5.2937999
7.47507 0.41756201 5.2484899
7.5090899 0.41480601 5.3044701
7.5223999 0.41657299 5.3475399
7.4471698 0.34813601 5.2293401
7.4551802 0.35550401 5.2427902
7.4711599 0.36322001 5.2723498
7.4591599 0.41455901 5.1996799
7.4566698 0.41369101 5.2181501
7.5132298 0.41670701 5.3067698
7.5167699 0.41745099 5.3253899
7.5324502 0.41639701 5.3415899
7.48737 0.419388 5.2708402
7.4468699 0.35027799 5.22789
7.47159 0.366272 5.2666302
7.4556098 0.410653 5.1979699
7.4808202 0.41334799 5.2553601
7.4941602 0.411771 5.2845201
7.5146899 0.41855401 5.30687
7.5299501 0.41532499 5.33883
7.45755 0.410638 5.2193198
7.4563398 0.35511699 5.2399502
7.45997 0.36412901 5.2500801
7.4732599 0.41165799 5.2413001
7.49089 0.41363299 5.29111
7.52878 0.41565099 5.3450699
7.45121 0.411946 5.2210202
7.5113401 0.410943 5.3218699
7.5244098 0.41069999 5.3384299
7.4762001 0.364234 5.2786999
7.4784398 0.41402099 5.2646098
7.4521499 0.40920401 5.2227402
7.5227199 0.413607 5.3404799
7.5080099 0.41461799 5.3201699
7.4412198 0.34484699 5.2199001
7.45964 0.412011 5.2094202
7.43858 0.42191699 5.2511201
7.51478 0.418475 5.31493
7.49439 0.41428599 5.2852898
7.4952998 0.409962 5.2966199
7.4614201 0.35927501 5.2578802
7.4903402 0.41207099 5.2943201
7.5142598 0.41798201 5.29705
7.45755 0.35661799 5.2406802
7.4905901 0.36677399 5.2978101
7.5217199 0.42397401 5.3127499
7.5398898 0.41944501 5.3331199
7.4549298 0.35659999 5.23985
7.4738498 0.36324701 5.2834501
7.4538102 0.439852 5.1784301
7.4896798 0.418015 5.2610602
7.4800301 0.42977601 5.2455902
7.5306101 0.40946099 5.3443398
7.4783301 0.36713499 5.2772298
7.4840899 0.413975 5.3255301
7.51864 0.410586 5.33954
7.4700599 0.40987599 5.2298298
7.4769702 0.40789601 5.2471099
7.46034 0.35709399 5.2483702
7.4527202 0.350326 5.2346201
7.4889202 0.362425 5.3054099
7.5124302 0.417261 5.3371401
7.4766798 0.41476899 5.25599
7.4784398 0.41380799 5.32725
7.4427099 0.346477 5.2234502
7.4551201 0.34533301 5.23034
7.4524002 0.35672799 5.2357202
7.4737101 0.420827 5.2086101
7.4572301 0.356693 5.2399602
7.4636002 0.366833 5.2698398
7.4716201 0.36526901 5.26998
7.45961 0.35997301 5.24718
7.4600601 0.361633 5.2529302
7.4969001 0.42510101 5.3136802
7.5352201 0.42443299 5.3229198
7.4775701 0.422878 5.2122798
7.5212898 0.41516 5.3203402
7.5199499 0.41999599 5.3110499
7.4605799 0.35999501 5.2600999
7.4811702 0.42230499 5.1812
7.4949698 0.417676 5.2638798
7.44488 0.43284601 5.1789098
7.4650998 0.41771701 5.1943698
7.4386702 0.35367799 5.2286301
7.5225701 0.417914 5.3248
