# .PCD v0.7 - Point Cloud Data file format
VERSION 0.7
FIELDS x y z
SIZE 4 4 4
TYPE F F F
COUNT 1 1 1
WIDTH 1418
HEIGHT 1
VIEWPOINT 0 0 0 1 0 0 0
POINTS 1418
DATA ascii
4.3221202 -0.71885902 5.4143801
4.3283 -0.71131802 5.4095702
4.33287 -0.67719197 5.4054399
4.3401198 -0.62895 5.40064
4.3490601 -0.47803199 5.3671298
4.3264399 -0.72504598 5.41748
4.3327298 -0.68624902 5.4078102
4.3296499 -0.67997497 5.4127002
4.3353801 -0.65160501 5.4114199
4.3366199 -0.60662401 5.4037499
4.3424602 -0.58858001 5.4061098
4.3487701 -0.53106302 5.4014602
4.3540301 -0.48852199 5.3947001
4.35851 -0.441394 5.39083
4.3627701 -0.39952901 5.3828201
4.3027 -0.71259803 5.4292598
4.32375 -0.71669602 5.4215298
4.3277302 -0.707932 5.4125099
4.3056998 -0.67364001 5.4259601
4.3252501 -0.67658502 5.4218302
4.33114 -0.67880201 5.41364
4.3334498 -0.669595 5.41399
4.3350401 -0.63986403 5.4120598
4.3357801 -0.620094 5.4122901
4.33885 -0.62108999 5.4053798
4.34238 -0.58736902 5.3990402
4.3418999 -0.58229601 5.4025102
4.3439999 -0.568142 5.4008002
4.34554 -0.56859797 5.3973598
4.3508801 -0.53578901 5.3941398
4.3484302 -0.53022403 5.4003201
4.33002 -0.505925 5.3982902
4.3525801 -0.492506 5.3934898
4.3348098 -0.47388801 5.3943801
4.3378801 -0.451031 5.3910398
4.35781 -0.445766 5.3910899
4.3421798 -0.42848301 5.38975
4.3583498 -0.43167201 5.38696
4.3590698 -0.42733699 5.3689098
4.3624501 -0.404138 5.3836198
4.34411 -0.39171401 5.3853998
4.34553 -0.36851799 5.4025402
4.3685498 -0.34908801 5.37955
4.3501801 -0.33314401 5.3797102
4.3706999 -0.326377 5.3748698
4.36937 -0.28494 5.38129
4.3784699 -0.258809 5.3688698
4.3842702 -0.227598 5.36689
4.3811302 -0.213789 5.3743801
4.3876801 -0.196367 5.3669
4.3906698 -0.18331 5.3611798
4.3879499 -0.16967601 5.3693299
4.39607 -0.152062 5.3643098
4.3956699 -0.125692 5.3657699
4.4012499 -0.108077 5.3625302
4.4015198 -0.091062501 5.3568602
4.40729 -0.043338399 5.3546
4.40977 -0.026134901 5.3523502
4.4161901 -0.0166185 5.3533902
4.4177899 0.021742901 5.35358
4.4186101 0.030148599 5.35184
4.39258 0.060327601 5.3326402
4.4242001 0.068411998 5.34694
4.3932099 0.087760702 5.3235302
4.4260402 0.106038 5.3476
4.40413 0.16581701 5.3235102
4.4219999 0.190744 5.3213601
4.4209499 0.198386 5.3223901
4.2761798 -0.70212102 5.4078498
4.3221302 -0.70950699 5.4204798
4.3235102 -0.69001901 5.4158602
4.3296499 -0.66774201 5.4119
4.31107 -0.62111002 5.4203
4.33674 -0.62112302 5.4072499
4.3353801 -0.61572301 5.40939
4.3413301 -0.58359098 5.4016399
4.3429999 -0.57442802 5.4011798
4.34271 -0.55976999 5.4018002
4.3190699 -0.54724699 5.4133601
4.3470101 -0.52735299 5.39749
4.3483 -0.52296102 5.3917999
4.3499198 -0.504251 5.3941798
4.3278198 -0.48854199 5.4070201
4.3554401 -0.47719601 5.3875399
4.3302202 -0.45198101 5.3977199
4.3552299 -0.45349801 5.3850298
4.3569002 -0.44459099 5.3784099
4.3638701 -0.38511401 5.3814702
4.34413 -0.359063 5.3754401
4.3659301 -0.36244401 5.3768401
4.3702698 -0.33099499 5.3729501
4.3736901 -0.299357 5.37362
4.3768201 -0.27261701 5.3693299
4.3562698 -0.25784999 5.3655701
4.3793602 -0.24566799 5.3701601
4.32513 -0.71573597 5.4149499
4.3824301 -0.223545 5.3674302
4.36305 -0.205422 5.3642001
4.38802 -0.192546 5.3657899
4.39152 -0.16186599 5.3607001
4.3689198 -0.158085 5.3570099
4.3901601 -0.121756 5.3684301
4.3938699 -0.078932904 5.35918
4.40166 -0.078763701 5.3541698
4.4026599 -0.0528927 5.3526402
4.3983898 -0.048718698 5.3559699
4.41048 -0.0299976 5.35778
4.4047799 -0.022161599 5.3573399
4.4089899 -0.000325803 5.3566599
4.4117699 0.021024 5.3536601
4.4201598 0.0307533 5.3523598
4.4191399 0.0682455 5.3491602
4.4201198 0.088676199 5.34338
4.4244499 0.089735202 5.3443999
4.4289398 0.111608 5.3441801
4.42168 0.118599 5.34725
4.4263401 0.14360701 5.3401098
4.4321799 0.152677 5.3348098
4.4116802 -0.000104272 5.3551002
4.3579402 -0.42585799 5.3860002
4.29495 -0.732319 5.4302802
4.3073301 -0.72194898 5.4209199
4.3201098 -0.686845 5.4164801
4.3287601 -0.689955 5.4122
4.32967 -0.68528003 5.4120402
4.3046799 -0.67143899 5.4240599
4.3239198 -0.66835499 5.4162102
4.3285098 -0.640145 5.4135699
4.3326502 -0.60689503 5.4081101
4.3154402 -0.59218103 5.4193702
4.3382702 -0.574426 5.4056802
4.3186998 -0.56420302 5.4141798
4.3186698 -0.535577 5.4094601
4.3466501 -0.528229 5.3959098
4.3273902 -0.49066299 5.4077702
4.3517199 -0.49119899 5.3907099
4.35496 -0.46821299 5.38765
4.3574901 -0.43123499 5.3778
4.3584499 -0.41742799 5.3810601
4.3621702 -0.381055 5.3804898
4.342 -0.35563001 5.3942399
4.3445702 -0.34687701 5.3955898
4.30476 -0.318829 5.3399501
4.3485699 -0.32119399 5.3721499
4.3729401 -0.30515501 5.37041
4.3547001 -0.295008 5.3731599
4.3718901 -0.29606101 5.3717098
4.31639 -0.27702299 5.3452401
4.3542199 -0.26786199 5.3884401
4.3808398 -0.177541 5.3682799
4.38797 -0.16514701 5.3563399
4.3660402 -0.377123 5.3722701
4.3832202 -0.152041 5.3624601
4.39328 -0.121949 5.3557601
4.3956099 -0.113147 5.3565998
4.3935699 -0.083913602 5.3544698
4.4073901 -0.039958101 5.3560801
4.4060402 -0.0357101 5.3585701
4.4092302 -0.035323702 5.3576798
4.4029002 -0.0090276701 5.3418102
4.4155998 0.038268398 5.3400302
4.4109201 0.045601401 5.3415298
4.4154701 0.063028499 5.3430901
4.3954601 0.076806299 5.3320198
4.4195399 0.091715597 5.33917
4.4179101 0.146066 5.3336401
4.4081101 0.205617 5.3159099
4.40236 -0.066407397 5.3505201
4.3283701 -0.68099201 5.4117098
4.3039999 -0.72941601 5.4250398
4.3034601 -0.69414902 5.4328899
4.27284 -0.67453402 5.3928699
4.3146901 -0.67185599 5.4212499
4.3305402 -0.66628402 5.4096699
4.3182902 -0.64299202 5.4239602
4.33851 -0.612809 5.4024501
4.34235 -0.56895697 5.39924
4.3301201 -0.56171298 5.4200702
4.3211699 -0.54967701 5.42062
4.3311701 -0.52246898 5.4046998
4.35151 -0.48791799 5.3904099
4.34623 -0.48224401 5.4013801
4.3305502 -0.47462901 5.4140902
4.3521099 -0.45458999 5.4010601
4.3562498 -0.45048001 5.3915701
4.3582602 -0.43180099 5.3874502
4.3614898 -0.40870601 5.3838401
4.3599 -0.394357 5.3902402
4.34553 -0.52545899 5.3947902
4.34271 -0.37344301 5.4092598
4.3646302 -0.366972 5.3877201
4.3494601 -0.33741701 5.4068499
4.3694801 -0.33996299 5.3777199
4.3522801 -0.31470799 5.4103098
4.3530598 -0.30134201 5.4057798
4.3730602 -0.290319 5.3709502
4.3559098 -0.279156 5.4015002
4.3738799 -0.28182599 5.3610702
4.3775301 -0.25532699 5.3568001
4.3660102 -0.21484201 5.3694901
4.3807001 -0.215214 5.3610301
4.38662 -0.15458401 5.3538599
4.3889999 -0.14160299 5.3529201
4.3554802 -0.426626 5.3955498
4.3784199 -0.107574 5.3617902
4.3943701 -0.090428598 5.3487
4.3938498 -0.064089201 5.3587799
4.3947001 -0.0440006 5.3513799
4.3892698 -3.0447e-05 5.3199601
4.4067602 0.038396999 5.3389401
4.4238601 0.102483 5.33777
4.4139199 0.107791 5.3372202
4.4171801 0.13882001 5.3297701
4.4193501 0.147368 5.33041
4.4099002 0.20397601 5.3210602
4.4102201 0.031409301 5.3417301
4.3729701 -0.154503 5.3641901
4.3771701 -0.241458 5.36549
4.3205299 -0.72727197 5.4314899
4.2986302 -0.68701398 5.4356499
4.32974 -0.685848 5.4212599
4.2996998 -0.67070103 5.4296799
4.3351498 -0.64939201 5.4155598
4.3302999 -0.66458797 5.4226899
4.31387 -0.58494902 5.4187698
4.3422098 -0.59216601 5.40341
4.34512 -0.57179397 5.3999701
4.3158998 -0.554479 5.4183998
4.3440099 -0.551112 5.4082198
4.3491802 -0.541354 5.3941998
4.3202801 -0.52985102 5.4159899
4.3539901 -0.480948 5.39608
4.3287001 -0.47088099 5.4158902
4.3534098 -0.46560901 5.3975401
4.4110599 0.191471 5.33248
4.3646798 -0.38749501 5.3842702
4.34338 -0.373705 5.4212899
4.3464198 -0.35450101 5.4184299
4.3680601 -0.34863999 5.3828301
4.3480802 -0.33059099 5.4096398
4.3411298 -0.58698601 5.4089298
4.3276901 -0.256152 5.35993
4.35954 -0.244801 5.4128399
4.3810301 -0.24003901 5.3681502
4.3837199 -0.20724 5.3678799
4.3828101 -0.187702 5.3761301
4.3848701 -0.173995 5.37391
4.3913598 -0.161412 5.36233
4.3894701 -0.142269 5.36834
4.3982902 -0.083998203 5.3589902
4.4019299 -0.079829201 5.35535
4.4066 -0.0130632 5.3518801
4.3257098 -0.48026499 5.41361
4.3970699 0.055468898 5.3523998
4.4028602 0.114113 5.3446898
4.4323702 0.17475501 5.3448501
4.4249201 0.16039699 5.3442898
4.4159799 0.113034 5.3478098
4.4049902 -0.048029799 5.3562398
4.39534 -0.111698 5.3562298
4.37428 -0.29653901 5.3709102
4.4177599 0.075747401 5.3520598
4.33565 -0.42711601 5.4202399
4.3236299 -0.70113599 5.4232798
4.3186698 -0.71083599 5.4281001
4.3289599 -0.64841002 5.4206901
4.3333602 -0.63846201 5.4144101
4.3347902 -0.62799102 5.4124599
4.3326802 -0.61663997 5.4131598
4.30865 -0.59390998 5.4238501
4.3123202 -0.57387698 5.4222898
4.34407 -0.56069601 5.4000802
4.34483 -0.540039 5.4028602
4.3498998 -0.51998103 5.3931298
4.34901 -0.49404001 5.4006901
4.3547902 -0.453908 5.3937898
4.35921 -0.44956699 5.37921
4.3628201 -0.374248 5.38311
4.3740001 -0.28194401 5.3733301
4.3555598 -0.26262 5.4092002
4.3850498 -0.20633601 5.3605099
4.3891602 -0.157812 5.36764
4.3935399 -0.125561 5.3612099
4.3912001 -0.097127303 5.3625398
4.3973699 -0.083523698 5.3594799
4.4015698 -0.051984701 5.35291
4.3993802 -0.046895102 5.3558898
4.40695 -0.00157298 5.3504
4.3933902 0.0219454 5.3588099
4.4153199 0.054235499 5.3526201
4.3990598 0.068165399 5.3243599
4.41609 0.110933 5.3455501
4.4043102 0.13188 5.3476601
4.4110899 0.17476 5.3410401
4.4177899 0.141728 5.3439598
4.3853002 -0.138357 5.37011
4.3018198 -0.63555503 5.4286299
4.3363299 -0.59630698 5.4123998
4.3537698 -0.45484701 5.3962302
4.3140402 -0.55030799 5.4239898
4.3154202 -0.540286 5.4232302
4.3512001 -0.47480699 5.39818
4.3597498 -0.405123 5.39007
4.3648701 -0.360746 5.3838501
4.3697 -0.34166601 5.37468
4.3449101 -0.32209101 5.4212399
4.37536 -0.273186 5.37289
4.37679 -0.23412301 5.3724098
4.3907499 -0.149056 5.3589902
4.3846998 -0.114332 5.3659801
4.3539901 -0.25348401 5.4148002
4.38761 -0.042534199 5.3678498
4.3993402 0.0020073601 5.35321
4.4039998 0.034649499 5.35145
4.4106598 0.085194103 5.34689
4.4064498 0.12848701 5.35464
4.4131899 0.193976 5.34203
4.31741 -0.61304301 5.4214602
4.4304399 0.211303 5.3312702
4.4173598 0.111771 5.34026
4.4125199 0.067033798 5.3477101
4.4008698 -0.082271203 5.3573899
4.3247199 -0.68892097 5.4223599
4.3009 -0.67772198 5.4324002
4.40769 0.034311101 5.3489399
4.3144398 -0.52725399 5.41995
4.30024 -0.65371102 5.4300199
4.3850598 -0.156271 5.3674502
4.3059101 -0.60633302 5.4278102
4.3084602 -0.58538097 5.42698
4.2931499 -0.718045 5.43577
4.3852401 -0.191333 5.3665099
4.4016399 -0.083995 5.3569999
4.4070301 -0.0136653 5.3427
4.4082899 -0.0039543798 5.34271
4.39433 0.0390356 5.3617401
4.4135799 0.149432 5.3423901
4.4105701 0.20473 5.3397598
4.37713 -0.23027401 5.3740602
4.31777 -0.50146502 5.4197898
4.3298402 -0.64249802 5.4190302
4.3200698 -0.712641 5.4130502
4.3353701 -0.56170499 5.3958802
4.3222399 -0.472123 5.4184399
4.3740702 -0.256529 5.3752799
4.3835602 -0.186057 5.3664398
4.3737502 -0.313281 5.3738899
4.3635201 -0.343445 5.3863301
4.3091202 -0.57850999 5.4278498
4.4121399 0.061925899 5.3492298
4.4102402 0.100872 5.3476801
4.4129901 0.13936 5.3445802
4.2937999 -0.70787603 5.4372401
4.3345399 -0.61259103 5.4133101
4.30656 -0.60494602 5.4271998
4.3118601 -0.54077703 5.42419
4.3805099 -0.22651801 5.3691001
4.3712001 -0.34930301 5.3769598
4.3884501 -0.060690999 5.3604398
4.3590498 -0.40057701 5.3895302
4.3424301 -0.52464199 5.3986402
4.28478 -0.73508501 5.4394999
4.3213201 -0.70307702 5.4184799
4.3340902 -0.58955902 5.4096398
4.3467598 -0.46626499 5.3968601
4.3658299 -0.319271 5.38064
4.4118299 0.219561 5.3447499
4.4017801 0.0173079 5.3493099
4.3562999 -0.397753 5.3905401
4.36694 -0.30360001 5.37993
4.3765898 -0.221121 5.3694301
4.3596301 -0.353044 5.3839402
4.3667498 -0.29044399 5.37533
4.2894602 -0.70122302 5.43258
4.2975602 -0.63564497 5.4263
4.3341398 -0.620565 5.4133301
4.3065701 -0.56594801 5.4245801
4.3362699 -0.54370499 5.4015498
4.3138499 -0.51731902 5.4193902
4.3155599 -0.47398999 5.4150901
4.3502498 -0.43169299 5.3856702
4.3790002 -0.153474 5.34619
4.37113 -0.127609 5.3786201
4.3737302 -0.085418001 5.37993
4.4010301 -0.050385401 5.3489699
4.4008999 0.037500098 5.35005
4.4348798 0.41087699 5.3158498
4.4179401 0.193711 5.3402901
4.3357201 -0.55997199 5.4035101
4.4089198 0.103245 5.3459702
4.36166 -0.34788299 5.3657398
4.29708 -0.64658803 5.4271302
4.3158302 -0.46862701 5.4148998
4.3014898 -0.59753001 5.4254298
4.28689 -0.72097498 5.4349899
4.2905998 -0.67250198 5.4319301
4.3358402 -0.52763098 5.3989
4.31423 -0.48485699 5.4077401
4.3920202 -0.093193799 5.35535
4.3959398 -0.038180899 5.3506398
4.39009 0.053009301 5.3633699
4.3914499 0.072915003 5.3611798
4.4078898 0.112901 5.3456101
4.3814702 -0.220505 5.3699002
4.38097 -0.26005599 5.37079
4.3584599 -0.37784001 5.3843098
4.3559098 -0.367385 5.38729
4.3614202 -0.35292301 5.3823099
4.3797698 -0.21625701 5.3617902
4.3403101 -0.498476 5.3979702
4.4005599 0.0262408 5.3473101
4.3420601 -0.51950598 5.3972802
4.3858199 -0.125007 5.3543401
4.42062 0.159361 5.3350501
4.3667798 -0.25421301 5.36868
4.3534198 -0.458974 5.3897901
4.4046698 0.0588676 5.3454599
4.3810701 -0.133931 5.3587699
4.3843899 -0.177662 5.35883
4.3776398 -0.16258401 5.3610601
4.3322001 -0.57055497 5.40553
4.3267002 -0.66044301 5.41361
4.3916898 -0.048469201 5.3534799
4.3491101 -0.45305899 5.3888898
4.41711 0.16010199 5.3386402
4.3975101 -0.0593035 5.3461299
4.4200201 0.15474799 5.3352299
4.4121799 0.090530597 5.3396401
4.3629999 -0.32315099 5.3729
4.4126701 0.123537 5.34131
4.3145399 -0.72865301 5.4225702
4.3249502 -0.67635 5.41539
4.3217201 -0.66487199 5.4159098
4.3906698 -0.086897001 5.3524199
4.3234301 -0.64897698 5.41396
4.3276601 -0.61232698 5.41048
4.3737502 -0.22797699 5.3550701
4.3271499 -0.64166403 5.4159002
4.3345299 -0.53927797 5.4107299
4.3512602 -0.40983099 5.3687601
4.3621001 -0.33099699 5.3681798
4.3424201 -0.217608 5.3916898
4.3544402 -0.113271 5.3773699
4.4020901 0.0914988 5.3453398
4.38941 -0.016104801 5.3497701
4.2814002 -0.72215402 5.4383402
4.3176599 -0.70292699 5.4188399
4.3190999 -0.68216801 5.4169798
4.35324 -0.38520199 5.3702898
4.3640699 -0.30129501 5.3646102
4.2937498 -0.62667501 5.4212699
4.3046799 -0.54146802 5.4155798
4.3050299 -0.53643203 5.4151101
4.3762498 -0.125174 5.35535
4.3931398 0.106032 5.35287
4.3168502 -0.43567199 5.3997202
4.3930898 0.0444615 5.3478498
4.3912401 0.019725399 5.3474202
4.3421302 -0.21748599 5.3913498
4.3414302 -0.22744299 5.3919001
4.3965001 0.0284789 5.3453598
4.4072499 0.123025 5.34373
4.3393898 -0.50147003 5.4036298
4.40557 0.098372497 5.3442798
4.2866302 -0.691836 5.4311099
4.3979998 0.055138301 5.3480101
4.3820601 -0.112374 5.35569
4.3748298 -0.151397 5.36027
4.3088198 -0.689982 5.4165301
4.3101501 -0.65676099 5.4127998
4.3986902 0.101204 5.3403201
4.4131598 0.226686 5.3320298
4.2867899 -0.66983098 5.4063501
4.3095198 -0.46578401 5.39856
4.3211002 -0.57488799 5.40206
4.3224101 -0.305188 5.3813
4.2768898 -0.73122299 5.4440298
4.3400602 -0.20912801 5.3885102
4.37679 -0.096564703 5.3505201
4.4043598 0.14311901 5.3366499
4.4003701 0.108326 5.3382702
4.30264 -0.50431103 5.4205599
4.3144102 -0.63247102 5.4075298
4.3925099 0.039956901 5.3418899
4.3123899 -0.73002398 5.4175401
4.31394 -0.71712202 5.4165902
4.2807798 -0.702429 5.4337401
4.3187299 -0.67735797 5.4117699
4.2845998 -0.66881001 5.4316001
4.2893701 -0.63110298 5.4176998
4.29036 -0.62345099 5.4144502
4.3485298 -0.42988899 5.3812299
4.3130202 -0.428729 5.3892002
4.3513699 -0.089630798 5.3717399
4.3934798 0.138639 5.3453202
4.3929901 0.13463099 5.3463502
4.3930101 0.066643998 5.3404498
4.3253398 -0.62134999 5.4189401
4.3199902 -0.58102697 5.4019899
4.3132501 -0.70954198 5.4146299
4.2855201 -0.66648299 5.4198999
4.3199201 -0.65929699 5.4089298
4.28686 -0.65627497 5.4173799
4.2891002 -0.63802099 5.4187698
4.3195601 -0.58661902 5.40133
4.2971501 -0.57503301 5.4104199
4.3208098 -0.551341 5.3990402
4.3689098 -0.066459402 5.37711
4.4021001 0.190414 5.33813
4.39569 0.140466 5.3436899
4.3986502 0.103189 5.33846
4.3878498 0.0799248 5.3534298
4.3039198 -0.52169901 5.4055901
4.30932 -0.45268399 5.3935599
4.4127002 0.21204001 5.3308401
4.2808399 -0.70276397 5.4263301
4.3366399 -0.52614897 5.3975401
4.2782202 -0.71005702 5.4232602
4.31811 -0.69875598 5.4131999
4.2814798 -0.68260801 5.4210501
4.30829 -0.67536497 5.4093199
4.2843199 -0.65856701 5.4206901
4.3213801 -0.647394 5.4075699
4.2968798 -0.58153701 5.4103498
4.3109102 -0.436551 5.3900399
4.3088198 -0.45373401 5.3945198
4.3285098 -0.28652599 5.3970299
4.3523502 -0.086477101 5.37814
4.3763499 -0.096907198 5.3497701
4.3007798 -0.52071702 5.4056201
4.41116 0.184622 5.33252
4.4131799 0.201014 5.3311501
4.4016099 0.107368 5.3373299
4.2877202 -0.630153 5.4173999
4.3717999 -0.047095198 5.3664098
4.40764 0.156142 5.3348999
4.4036002 0.15334199 5.3367701
4.3971701 0.071517497 5.3394799
4.27812 -0.60168999 5.3787799
4.3298802 -0.654769 5.4070802
4.3413601 -0.56478202 5.3909602
4.3680201 -0.28561899 5.3656101
4.35109 -0.44329399 5.38381
4.3537698 -0.41962501 5.3787298
4.3348098 -0.61966503 5.4017501
4.3368602 -0.584364 5.3993902
4.3426499 -0.52019203 5.3917599
4.3394198 -0.539437 5.3936
4.3383799 -0.58959001 5.3957801
4.3477702 -0.26990199 5.3934598
4.31638 -0.70821798 5.4118199
4.29145 -0.71676397 5.4271302
4.3262501 -0.68998897 5.4059501
4.3931599 0.0462416 5.3502698
4.3705201 -0.213645 5.3638701
4.3984599 0.082617998 5.34443
4.3018098 -0.641617 5.4144502
4.4011998 0.0173891 5.3394599
4.38306 -0.14405701 5.3499298
4.3793802 -0.170044 5.3540602
4.3961601 -0.0494899 5.3428798
4.3953199 -0.066800199 5.34056
4.40593 0.150188 5.3366199
4.3977599 -0.053902701 5.33987
4.3267298 -0.43017799 5.3965702
4.40134 0.118599 5.3417702
4.4158502 0.155691 5.3311501
4.40027 0.110708 5.3432398
4.4131498 0.136016 5.33465
4.37323 -0.196035 5.3615398
4.3970399 -0.0243998 5.3415298
4.3411002 -0.319713 5.39361
4.37707 -0.169824 5.3576198
4.3846302 -0.118013 5.3498101
4.32163 -0.672903 5.4070101
4.3422999 -0.389631 5.3938098
4.3281598 -0.63323098 5.4029698
4.41327 0.21287601 5.3308001
4.3257399 -0.64808202 5.4045401
4.3138199 -0.52935898 5.4061599
4.4095302 0.189409 5.3338699
4.40697 0.034260798 5.33568
4.3646302 -0.25354299 5.36974
4.2974801 -0.67134398 5.4189401
4.3176498 -0.50068903 5.40098
4.4205399 0.199359 5.3289099
4.41045 0.071358196 5.33426
4.2849102 -0.655352 5.4133101
4.3220201 -0.64345503 5.40627
4.2870598 -0.63188601 5.4091802
4.32515 -0.61262602 5.4033999
4.3287201 -0.573515 5.39363
4.2955899 -0.57469398 5.4056401
4.3315601 -0.54985201 5.3979602
4.29948 -0.53318501 5.4006901
4.3154802 -0.52973199 5.40238
4.3172202 -0.51187199 5.40063
4.3404298 -0.49460399 5.3953199
4.3389602 -0.475775 5.3891101
4.3382702 -0.45182899 5.3863702
4.34446 -0.42571899 5.3906498
4.3164101 -0.390802 5.3949299
4.3511 -0.38767701 5.3815598
4.3497601 -0.368902 5.37815
4.3583498 -0.250848 5.3640699
4.3743901 -0.155018 5.3524399
4.37358 -0.131153 5.3505702
4.3790998 -0.107679 5.3461299
4.3786702 -0.082663901 5.3484502
4.3924799 -0.082302302 5.35532
4.3748498 -0.0295419 5.3589401
4.3940601 -0.0305211 5.3443799
4.3776999 -0.0032053201 5.3604298
4.4033399 0.121658 5.3359098
4.3954802 0.14167599 5.3434501
4.4094801 0.182338 5.32933
4.3923502 0.110868 5.3457098
4.40099 0.101429 5.3337402
4.3991299 0.0829622 5.3358698
4.3948998 0.042231102 5.33883
4.3895102 -0.0089095002 5.3413801
4.37711 -0.096799701 5.34795
4.4066801 0.155277 5.3313699
4.3036499 -0.637927 5.4121699
4.2916198 -0.61627698 5.4116802
4.3116202 -0.611301 5.4043899
4.3200302 -0.60915601 5.4011898
4.3066602 -0.60903502 5.4102001
4.3270001 -0.59917802 5.4032302
4.3299298 -0.56861597 5.3970098
4.3762798 -0.128993 5.34934
4.3108602 -0.569085 5.40798
4.2953501 -0.57831597 5.4078398
4.3120399 -0.55860102 5.40833
4.3369799 -0.53120601 5.3955102
4.3215899 -0.51746798 5.3984499
4.3060198 -0.500341 5.4005399
4.4004202 0.17303801 5.3399801
4.3210502 -0.49586099 5.39817
4.3221998 -0.484559 5.3970098
4.3425298 -0.482218 5.3934999
4.3091798 -0.46927699 5.3985701
4.3414998 -0.46198601 5.3886399
4.3428602 -0.45117199 5.3896999
4.3260798 -0.44778001 5.3947201
4.31143 -0.445995 5.3954601
4.3270001 -0.439219 5.39432
4.3126202 -0.43453801 5.3951201
4.3143702 -0.417 5.3935499
4.3303399 -0.40732101 5.3919902
4.3350902 -0.36323699 5.3905001
4.37462 -0.14508601 5.3514099
4.3517799 -0.077959098 5.3677902
4.3692799 -0.065226801 5.36584
4.3971901 -0.059185199 5.3508
4.3878598 -0.052908 5.3450098
4.3882198 -0.049554601 5.3446798
4.3914199 -0.0496209 5.3453002
4.3959799 -0.0059470399 5.3396602
4.3797202 0.0066441898 5.3558998
4.3904901 0.107797 5.3488898
4.38762 0.114571 5.3457098
4.3892999 0.13229699 5.3422499
4.39328 0.136445 5.3440199
4.4032001 0.143067 5.33497
4.3108301 -0.57019502 5.4064298
4.33495 -0.52255201 5.3930998
4.31671 -0.52252799 5.4023399
4.3174801 -0.50885499 5.4001098
4.33424 -0.497154 5.3929601
4.3460698 -0.45120201 5.3910499
4.3240199 -0.45151401 5.3947701
4.3102298 -0.451251 5.3994198
4.31039 -0.448443 5.3990502
4.3118401 -0.426231 5.3978
4.3446202 -0.41992599 5.3818898
4.3706498 -0.073172897 5.3632398
4.33319 -0.39802399 5.38941
4.34657 -0.39232701 5.3794599
4.3499899 -0.383766 5.3787298
4.32128 -0.36558899 5.39047
4.35078 -0.330129 5.3726802
4.3568101 -0.32702899 5.3733101
4.3410301 -0.326401 5.3841801
4.3575802 -0.31551301 5.3718901
4.3941302 -0.0143399 5.3435001
4.3587799 -0.298163 5.3700299
4.3536301 -0.289727 5.3691902
4.3632598 -0.27468801 5.3673801
4.3638301 -0.26587099 5.3661399
4.3490801 -0.25526899 5.3801799
4.3506098 -0.237123 5.3808899
4.3661799 -0.233319 5.3631802
4.3702202 -0.218272 5.3621402
4.3551898 -0.209462 5.3759799
4.3716798 -0.20016301 5.3615098
4.3572698 -0.18457299 5.3766298
4.36025 -0.17844599 5.3725801
4.35919 -0.162397 5.3777199
4.3757701 -0.13896 5.3534999
4.3533201 -0.120458 5.3778501
4.3538499 -0.104756 5.3720398
4.38204 -0.097928002 5.3518
4.3713398 -0.063357398 5.36238
4.3727498 -0.043576699 5.3607302
4.39012 -0.027369 5.3445802
4.3797898 0.0131179 5.3551998
4.3851099 0.046656299 5.35078
4.3989601 0.046082798 5.3400002
4.3872199 0.074502498 5.3490901
4.4054699 0.129263 5.3343301
4.4060502 0.136402 5.3339801
4.4021101 0.194519 5.3372698
4.4095602 0.17973401 5.3317599
4.3410702 -0.48094201 5.3928399
4.3439798 -0.43111199 5.3839598
4.3892798 -0.0402366 5.3464799
4.39116 -0.050470799 5.3450899
4.38797 -0.053592499 5.3456101
4.3527002 -0.084338702 5.3753901
4.3139701 -0.43371299 5.3954701
4.3473601 -0.42264 5.3831201
4.3491602 -0.394831 5.3794098
4.4024501 0.090716504 5.3369198
4.40171 0.080467999 5.3380198
4.3550601 -0.26620501 5.3653998
4.3771801 -0.23660301 5.3703399
4.3642802 -0.27746201 5.3720198
4.3481898 -0.39135 5.3836002
4.3159599 -0.71604598 5.4157901
4.3922701 -0.0281999 5.3488102
4.3989 0.0111468 5.3426499
4.3792801 -0.160679 5.3542099
4.35744 -0.31341001 5.3766398
4.3818498 -0.119652 5.3533902
4.3392601 -0.47015601 5.3931398
4.3274798 -0.59777099 5.4053602
4.3116598 -0.699615 5.4156699
4.3138499 -0.45785201 5.3948698
4.3145299 -0.64557898 5.41115
4.31567 -0.62402803 5.4092698
4.3060498 -0.51635098 5.4044099
4.3775201 -0.113834 5.35605
4.4044099 0.0979046 5.3413
4.3979998 0.063817002 5.3467398
4.3881798 0.050982699 5.3545399
4.3734002 -0.0538604 5.3695502
4.3793201 -0.0197252 5.3604598
4.3965402 0.038453899 5.34798
4.3910699 0.097220004 5.35358
4.4067001 0.13366 5.3408198
4.3801398 -0.0044636601 5.3593202
4.3849001 -0.078160502 5.35501
4.3274102 -0.44021499 5.3936801
4.3278399 -0.43151301 5.39259
4.3449502 -0.42201599 5.3780499
4.3285098 -0.41839799 5.3910499
4.3316002 -0.40728399 5.3906999
4.3167 -0.404324 5.3947802
4.31745 -0.39572001 5.3952999
4.3722901 -0.061317101 5.3594398
4.3982301 -0.076368801 5.3592501
4.3819098 -0.096891597 5.3523998
4.35144 -0.36607501 5.3751998
4.3210902 -0.37283999 5.39359
4.3246899 -0.35679299 5.3937201
4.33742 -0.34634 5.38482
4.3408298 -0.32999599 5.38377
4.3414402 -0.32074401 5.3831301
4.3572502 -0.316524 5.3716302
4.3449798 -0.29683101 5.37991
4.3319998 -0.29860699 5.3957901
4.3608699 -0.288293 5.3670502
4.36199 -0.28270599 5.3610401
4.3463602 -0.27790701 5.3790698
4.3614602 -0.252496 5.3572798
4.3621101 -0.243025 5.3564301
4.36344 -0.23120099 5.3572502
4.3678098 -0.23065799 5.3561301
4.3660002 -0.19967601 5.3559499
4.3566399 -0.19370399 5.3724098
4.3696299 -0.15970799 5.3556399
4.3794999 -0.130868 5.35537
4.37676 -0.128584 5.3534999
4.36622 -0.115534 5.3641701
4.3535299 -0.110456 5.3716302
4.3673301 -0.099484101 5.3629599
4.3542199 -0.096930802 5.3699598
4.35706 -0.078050002 5.3649001
4.37187 -0.066838004 5.3597202
4.3733501 -0.044755299 5.3578701
4.3780298 -0.0083624003 5.3536301
4.37889 0.00310111 5.3529401
4.3860898 0.019095501 5.3459201
4.3496799 -0.124256 5.3708501
4.38376 0.0405236 5.3488498
4.3907599 0.053555898 5.3418798
4.3924999 0.071699001 5.3419299
4.3959498 0.089100197 5.3390899
4.3908501 0.106098 5.3431301
4.39152 0.115302 5.3424902
4.3945699 0.124182 5.34094
4.39569 0.13966 5.3397598
4.3964601 0.149151 5.3393402
4.4033098 0.209268 5.33395
4.3921499 0.000114647 5.3382702
4.3621101 -0.144631 5.36765
4.3871298 -0.043637201 5.3442202
4.4018402 0.19270501 5.3343301
4.3699298 -0.177183 5.3540502
4.3195601 -0.390322 5.3926001
4.3979201 0.171012 5.3372302
4.3926301 0.13072801 5.3413301
4.3567801 -0.324543 5.3565402
4.3566599 -0.32328001 5.3717399
4.36061 -0.29156801 5.3590999
4.3622098 -0.26961601 5.3656201
4.38936 0.084922798 5.3448501
4.36409 -0.26437199 5.36239
4.38482 0.055266701 5.3477998
4.36444 -0.216727 5.35602
4.3683801 -0.214232 5.3608599
4.3555002 -0.208809 5.3730698
4.3688302 -0.194537 5.3559399
4.3668699 -0.187337 5.35497
4.3512902 -0.23635601 5.3752398
4.3430901 -0.38249001 5.3729501
4.3204498 -0.38619599 5.3920398
4.3488898 -0.37495199 5.3752799
4.3466001 -0.36656699 5.37117
4.33535 -0.366808 5.3859
4.32268 -0.368563 5.3924899
4.3476 -0.35675099 5.3702302
4.35254 -0.35258299 5.3713198
4.3515401 -0.34080499 5.3695998
4.32689 -0.35456201 5.39394
4.39714 -0.075868398 5.3583598
4.3749399 -0.167546 5.3568001
4.3730202 -0.047022201 5.3561001
4.3735199 -0.0419151 5.3556399
4.3618798 -0.217365 5.3571901
4.3493099 -0.33881399 5.3681798
4.3383002 -0.338498 5.3839898
4.3517699 -0.32812801 5.3653402
4.35042 -0.32455099 5.36584
4.3520498 -0.308292 5.3642101
4.3580899 -0.30881 5.3700399
4.3526602 -0.302136 5.3635702
4.3432698 -0.302432 5.3787599
4.3329301 -0.302499 5.3933001
4.3594499 -0.29426301 5.3682499
4.33568 -0.28656599 5.3889599
4.35537 -0.27951699 5.3625898
4.3457198 -0.281342 5.3780499
4.3633399 -0.26069501 5.36621
4.3572998 -0.258331 5.3599
4.3582602 -0.25203401 5.36022
4.3498302 -0.25261301 5.37289
4.3400102 -0.246914 5.3874698
4.33951 -0.23749299 5.3821702
4.3408198 -0.22622401 5.38203
4.35394 -0.217271 5.3715601
4.36234 -0.212963 5.3567901
4.3422899 -0.21251599 5.3814101
4.3678002 -0.20149601 5.3558602
4.3558798 -0.196845 5.3695102
4.3657198 -0.188537 5.3570199
4.3479199 -0.186792 5.3822498
4.3663902 -0.181758 5.3563299
4.3580098 -0.17843901 5.3688002
4.3589702 -0.173792 5.3699002
4.3678598 -0.16809601 5.3552499
4.3691802 -0.15659299 5.3545899
4.3747702 -0.14926501 5.35532
4.3621802 -0.140734 5.3667302
4.3511 -0.13662601 5.3728499
4.3716002 -0.13560399 5.3533902
4.37676 -0.13054401 5.3536801
4.3516202 -0.12934799 5.3716898
4.3810401 -0.116066 5.35396
4.35567 -0.102328 5.3667598
4.3798699 -0.10194 5.3513999
4.3685999 -0.092143796 5.3604102
4.3550701 -0.089832701 5.3673
4.3675599 -0.087081604 5.3621502
4.3719101 -0.039223701 5.3566899
4.3891702 -0.0304549 5.3435602
4.3753901 -0.023854099 5.3541999
4.39253 -0.0082094697 5.3380098
4.3921499 0.0049037701 5.3382001
4.3418298 -0.32152799 5.3818002
4.38167 0.0180979 5.3496599
4.39463 0.0235114 5.3379598
4.3836799 0.039471202 5.3473501
4.39434 0.037123401 5.3383598
4.3987699 0.055978399 5.3369899
4.38732 0.075108603 5.3443198
4.3884301 0.086227402 5.3432899
4.39217 0.123034 5.3401098
4.40418 0.143206 5.3318901
4.3986602 0.163541 5.3363099
4.3555999 -0.324669 5.3691301
4.4019799 0.19886599 5.3323898
4.3913598 0.114517 5.3410001
4.3526201 -0.112311 5.3682299
4.3556099 -0.079913102 5.36516
4.3714399 -0.0646777 5.3582301
4.3709002 -0.049461599 5.3576298
4.3449001 -0.28990799 5.37886
4.3647599 -0.22782101 5.35748
4.33917 -0.348739 5.38307
4.3271098 -0.351621 5.3919902
4.3281999 -0.34439901 5.3920698
4.3408098 -0.336045 5.3822198
4.3506098 -0.32841 5.3669801
4.3415399 -0.33057299 5.3819299
4.3512402 -0.322981 5.3663602
4.3947001 -0.075452499 5.3586202
4.3910699 -0.0104974 5.3390002
4.3306298 -0.323823 5.3905301
4.3434501 -0.30978 5.3785801
4.35813 -0.29606599 5.3679199
4.3338199 -0.29499301 5.3878002
4.3557701 -0.28426999 5.36198
4.3887401 -0.0498657 5.3439999
4.3473701 -0.27539399 5.37499
4.35742 -0.27111799 5.3607602
4.3481398 -0.26756799 5.3738699
4.3587799 -0.261686 5.3603201
4.3359199 -0.26700699 5.3824
4.34794 -0.26031199 5.3754201
4.3596201 -0.25398999 5.3593202
4.3713198 -0.061064899 5.3567801
4.3628898 -0.242137 5.3579898
4.3816299 0.030546701 5.3470998
4.34129 -0.231033 5.3827701
4.3669801 -0.224967 5.3610401
4.3673 -0.22299699 5.3610201
4.3523598 -0.224355 5.37257
4.3652401 -0.21299499 5.3566799
4.3833899 -0.103578 5.3524399
4.3549199 -0.205415 5.3666
4.3551998 -0.20127 5.3656702
4.3823099 -0.112381 5.3533101
4.35707 -0.186781 5.3647099
4.3703198 -0.182753 5.3569999
4.3596601 -0.16360299 5.3621702
4.3499098 -0.14999001 5.3740802
4.3627 -0.135655 5.3641
4.37885 -0.138429 5.35531
4.3765602 -0.136509 5.3538098
4.35147 -0.125641 5.36868
4.3645701 -0.122475 5.3584499
4.3361902 -0.120625 5.3530998
4.3653598 -0.111317 5.36134
4.37535 -0.145069 5.35426
4.35604 -0.098422699 5.3645902
4.38416 -0.096945502 5.3516502
4.3336501 -0.099450901 5.3375301
4.3571801 -0.084748998 5.3622398
4.3843002 -0.059020799 5.3468199
4.3786998 -0.155268 5.3568902
4.3867798 -0.049955301 5.3442502
4.3884501 -0.0360846 5.3428202
4.3722 -0.16825099 5.3558202
4.3761702 -0.0161674 5.35151
4.3933601 -0.00584275 5.3376598
4.3937802 -0.00116629 5.3368201
4.3912601 0.0040041702 5.33882
4.3793602 0.0106965 5.3491001
4.3461399 -0.16311701 5.36902
4.3996301 0.061539199 5.3364301
4.4117098 0.097639799 5.3408499
4.38972 0.099979296 5.3404598
4.3976498 0.103984 5.33634
4.4046202 0.116141 5.3323598
4.3999 0.122555 5.33465
4.39814 0.173143 5.3331699
4.3590798 -0.169972 5.3631902
4.35431 -0.29735199 5.3636298
4.3950701 0.145684 5.3361502
4.3601699 -0.28797701 5.36519
4.3611398 -0.27158201 5.3654599
4.3909502 0.110575 5.3394098
4.3720498 -0.189999 5.3501801
4.34197 -0.209929 5.3762498
4.3452902 -0.203519 5.3772302
4.3678002 -0.194923 5.3557301
4.37677 -0.0113126 5.35114
4.3917799 -0.017713999 5.3385701
4.4133201 0.29940999 5.32232
4.38939 -0.029053001 5.3422999
4.3723798 -0.049469501 5.3549299
4.3857799 0.022398399 5.3443198
4.3628998 -0.258214 5.3643999
4.3796 -0.134114 5.3554201
4.3663602 -0.202951 5.3554101
4.3614802 -0.146567 5.3653002
4.3850698 0.0608752 5.3439598
4.3723998 -0.18463001 5.3580899
4.37082 -0.283292 5.3681798
4.3765802 -0.211825 5.3591599
4.3376799 -0.37076199 5.4126601
4.3290701 -0.66209501 5.4115801
4.3790398 -0.197639 5.3585701
4.3502698 -0.44860199 5.3849702
4.3563099 -0.374569 5.3757
4.37293 -0.21133199 5.36133
4.3891001 -0.127716 5.34971
4.3359599 -0.57908702 5.4005198
4.3453002 -0.48311099 5.3892298
4.3220301 -0.69644898 5.4099698
4.2962499 -0.68376499 5.42349
4.3072 -0.67166299 5.4216399
4.3148098 -0.61546898 5.4130802
4.3212399 -0.54972601 5.4093199
4.3176398 -0.48205301 5.4015198
4.3844299 -0.127708 5.3490801
4.3790102 -0.164794 5.35358
4.37534 -0.18816499 5.35568
4.3933001 -0.0678844 5.3422198
4.3936601 0.066403098 5.3460798
4.4085798 0.19396099 5.3312802
4.4151702 0.167328 5.3276801
4.3790302 0.0052803801 5.36304
4.3635101 -0.272753 5.3674898
4.4023399 0.146669 5.3394899
4.4008698 -0.062011201 5.3480802
4.4063201 0.029394999 5.3397498
4.4145699 0.189024 5.3264399
4.3996902 -0.0076510799 5.3406901
4.3463202 -0.28593799 5.3756599
4.3362598 -0.275058 5.38027
4.34832 -0.27153099 5.3740501
4.3384399 -0.27077901 5.3830199
4.35358 -0.26321799 5.3687801
4.3645501 -0.25288099 5.3646698
4.3663902 -0.23988301 5.36307
4.41471 0.050198998 5.3504601
4.3851099 0.049393699 5.3448901
4.3545599 -0.252469 5.3695598
4.34233 -0.255642 5.3818102
4.3410602 -0.252534 5.3814301
4.3554902 -0.24590699 5.3688202
4.3565602 -0.237615 5.3677001
4.3219399 -0.23864301 5.3643098
4.3218498 -0.23339599 5.3621702
4.3538198 -0.22747201 5.3710499
4.35812 -0.225906 5.36621
4.3671999 -0.21909299 5.3624601
4.3549099 -0.22070999 5.3706002
4.35921 -0.214553 5.3670502
4.34516 -0.216419 5.37609
4.3242602 -0.215469 5.3640299
4.32444 -0.213742 5.36378
4.35638 -0.210428 5.3695402
4.34343 -0.21127 5.3740902
4.3611798 -0.20082501 5.3656001
4.3673201 -0.198814 5.3579602
4.3619199 -0.193849 5.3643599
4.369 -0.188558 5.3571501
4.3252001 -0.188995 5.3561802
4.3668299 -0.182092 5.35674
4.3496499 -0.18325301 5.37608
4.3249502 -0.18181901 5.3529701
4.3499599 -0.179609 5.37535
4.3689299 -0.168101 5.35534
4.36133 -0.16845 5.3664699
4.3518 -0.166834 5.3742599
4.3701301 -0.161036 5.3548899
4.32762 -0.164134 5.3520098
4.3713102 -0.15391301 5.3543801
4.3753099 -0.15352701 5.3554502
4.3299198 -0.15154301 5.35215
4.3642001 -0.146579 5.36377
4.3308401 -0.147909 5.3527198
4.35427 -0.144527 5.3708701
4.3528299 -0.139274 5.3731499
4.3534198 -0.12775999 5.3664498
4.3661199 -0.122533 5.3617802
4.3799901 -0.115338 5.3526802
4.3562999 -0.106632 5.3643599
4.3568101 -0.10083 5.3632202
4.3805099 -0.098623902 5.3504801
4.3825002 -0.098417997 5.3509002
4.3701601 -0.0938145 5.3588099
4.35783 -0.0910815 5.36163
4.3706198 -0.0783225 5.3573198
4.3724799 -0.066378899 5.3564401
4.3766298 -0.036036 5.3531199
4.39045 -0.032054599 5.3436999
4.3778 -0.027783999 5.3522902
4.3907199 -0.0140624 5.3406901
4.3839598 0.0274616 5.3471699
4.3807602 0.0057808599 5.34905
4.3818002 0.0122755 5.34864
4.3805399 0.0164841 5.3482699
4.3821201 0.0273776 5.34728
4.3850298 0.036143899 5.3459902
4.3990598 0.039670099 5.3393302
4.38658 0.0471958 5.3448801
4.4001198 0.046262801 5.33883
4.4005899 0.072870903 5.3366899
4.3906002 0.088011101 5.3411999
4.40312 0.088840097 5.3354301
4.3964801 0.0966556 5.3381
4.3883901 0.0605672 5.3434
4.4000702 0.059315201 5.3372898
4.39396 0.111402 5.3390298
4.4087 0.110031 5.3343501
4.3944101 0.0155125 5.3397698
4.3930602 0.120636 5.3376598
4.40165 0.132039 5.3348098
4.3972201 0.149637 5.335
4.40099 0.17677601 5.3322601
4.4082499 0.199506 5.33005
4.3923802 0.00477179 5.3400402
4.41503 0.30177799 5.3215599
4.3516002 -0.253894 5.3736401
4.35285 -0.24392299 5.3722801
4.3603802 -0.175641 5.3673501
4.3740201 -0.172811 5.3573599
4.3741598 -0.137674 5.3535099
4.3569398 -0.125586 5.3691502
4.3815398 -0.105956 5.3519902
4.3887901 -0.0596647 5.3477998
4.3747501 -0.048330698 5.3540902
4.3898702 -0.044128299 5.3439202
4.4098501 0.0424941 5.3478999
4.3930202 -0.0239447 5.3420901
4.3936601 0.076086998 5.3403802
4.3577499 -0.247114 5.3664999
4.3628402 -0.24282899 5.36831
4.3200598 -0.240466 5.36272
4.3670502 -0.230538 5.3654099
4.3631301 -0.229127 5.3631201
4.34514 -0.22813199 5.37813
4.35496 -0.22267 5.3726301
4.35429 -0.21992899 5.3727999
4.3664899 -0.211473 5.3611102
4.3476601 -0.210122 5.3775501
4.3564 -0.20612501 5.3706002
4.36129 -0.20092601 5.3621702
4.3714299 -0.196404 5.3603702
4.35776 -0.19841 5.3696599
4.3226199 -0.19870199 5.35537
4.3631401 -0.191808 5.3613801
4.3503599 -0.18836001 5.3758101
4.3600202 -0.185939 5.3682499
4.3744798 -0.181154 5.35884
4.35988 -0.181483 5.3686399
4.3642802 -0.17809799 5.35992
4.3614402 -0.17355999 5.36797
4.3671298 -0.16847999 5.35817
4.3731899 -0.16457 5.3568501
4.3529301 -0.156257 5.3723602
4.3639698 -0.14946599 5.3647699
4.3747802 -0.144263 5.35568
4.3290901 -0.145624 5.3506198
4.3639898 -0.143077 5.3647199
4.3744898 -0.131593 5.3547902
4.3664598 -0.121504 5.3625598
4.36726 -0.116415 5.3618102
4.3699198 -0.100982 5.35993
4.3712401 -0.078437798 5.3582201
4.3730102 -0.074814297 5.3570199
4.3614502 -0.0703201 5.36027
4.3910198 -0.068340801 5.3502302
4.3734298 -0.065931 5.3567801
4.3857002 -0.0601243 5.3483801
4.37358 -0.056986898 5.3560901
4.3884802 -0.047729701 5.3452301
4.3757801 -0.0441899 5.3545699
4.3870201 -0.040667899 5.3450699
4.3919601 -0.0405403 5.3428001
4.3900499 -0.0224784 5.3425202
4.3787599 -0.0105475 5.35145
4.3824401 0.0106817 5.34903
4.3975 0.0272079 5.33954
4.3847098 0.0323852 5.34693
4.4000602 0.053325702 5.33849
4.3882399 0.062706701 5.3435102
4.3878598 0.068994798 5.3432899
4.3904099 0.083628297 5.3417001
4.39468 0.124877 5.3384299
4.4092498 0.184728 5.32974
4.4039698 0.198048 5.3312101
4.4138699 0.283023 5.3242002
4.4297299 0.406782 5.3130798
4.3951602 0.122938 5.3383999
4.4031 0.189537 5.3313699
4.3202901 -0.50240701 5.39782
4.3396802 -0.498319 5.3941798
4.3243198 -0.48118299 5.3975101
4.3099098 -0.48255301 5.4026799
4.3399801 -0.46993801 5.3836598
4.3384299 -0.45611101 5.3824501
4.3392501 -0.44164801 5.38059
4.3297501 -0.434966 5.3941202
4.3497901 -0.40263101 5.37991
4.3197598 -0.39754 5.3947201
4.3309999 -0.415252 5.3926702
4.3343902 -0.39981699 5.3907199
4.3511 -0.38289401 5.37814
4.3681698 -0.23465601 5.3619499
4.3354201 -0.38211101 5.3888202
4.3512702 -0.37774801 5.37679
4.3211098 -0.37735799 5.3941398
4.3250699 -0.35930601 5.3944001
4.3632598 -0.26406899 5.3630199
4.3673701 -0.24535701 5.3625998
4.3746901 -0.188153 5.3610702
4.3552399 -0.35489401 5.3744102
4.3252702 -0.34845099 5.3908501
4.3609099 -0.30607399 5.3692498
4.3617902 -0.29310301 5.3680601
4.36904 -0.23691601 5.3547802
4.3577199 -0.32204199 5.3728199
4.34412 -0.322216 5.38241
4.3706002 -0.204844 5.3610702
4.38026 -0.15159 5.35954
4.3983002 -0.13360301 5.3614001
4.3849502 -0.134129 5.3615699
4.3757401 -0.17150301 5.3590598
4.3722301 -0.17456 5.3562102
4.3695898 -0.218477 5.3619299
4.3461499 -0.287839 5.3786001
4.37221 -0.185535 5.3607101
4.3477898 -0.26375601 5.3771901
4.3887401 0.075374998 5.3443098
4.3903098 0.098056696 5.3424201
4.3903399 -0.038463201 5.3466601
4.3997898 0.116603 5.3388
4.3757601 -0.140451 5.35884
4.3967099 0.0390529 5.3436799
4.3569198 -0.078834303 5.3622699
4.3513098 -0.24723201 5.3747501
4.37713 -0.120403 5.3569999
4.3808098 -0.105869 5.3556199
4.3836999 0.040593099 5.3481698
4.3698502 -0.084898002 5.35989
4.3857899 -0.070813 5.3516402
4.3712301 -0.066855498 5.3592401
4.3752499 -0.043008301 5.3554401
4.3880601 -0.035278 5.3474202
4.37638 -0.027690601 5.35461
4.39713 0.080742098 5.3413301
4.3772202 -0.0154028 5.3536401
4.39188 -0.0173549 5.3449302
4.3824201 0.0217002 5.3498101
4.3927698 0.0585085 5.34343
4.3889799 0.078613803 5.34408
4.39957 0.113347 5.3391199
4.3519201 -0.239067 5.3745198
4.3909001 0.033147499 5.3452001
4.39885 0.180877 5.3348899
4.4019799 0.184065 5.3345299
4.4000301 0.15696999 5.3365998
4.3998299 0.153688 5.3370299
4.3959599 0.137483 5.3392
4.39574 0.13417999 5.33953
4.3207502 -0.67922699 5.4116702
4.2860599 -0.68374002 5.42065
4.3214002 -0.67328298 5.4106998
4.3233399 -0.65628302 5.4100299
4.3326302 -0.57256901 5.3993902
4.3131099 -0.458123 5.3920999
4.3059902 -0.49471301 5.4024401
4.3561802 -0.363718 5.3819799
4.3269701 -0.62320501 5.4046202
4.28932 -0.65272701 5.4141002
4.29848 -0.56588203 5.4075098
4.3239102 -0.53790301 5.3986402
4.3014102 -0.53810298 5.40487
4.3394899 -0.51301199 5.3979902
4.31883 -0.40467599 5.39429
4.37431 -0.139891 5.3559399
4.39572 0.051301699 5.3429599
4.3845701 -0.079179399 5.3522801
4.3898201 0.093291402 5.3464398
4.3931499 0.0284322 5.3443699
4.3783398 -0.104139 5.3543801
4.3901901 0.0020241099 5.3460102
4.40344 0.120631 5.33708
4.40131 0.101358 5.33918
4.3182502 -0.71378398 5.4207001
4.28685 -0.683851 5.4281001
4.33109 -0.293769 5.3938198
4.3055902 -0.50796199 5.4168
4.2950101 -0.622657 5.4131799
4.3759098 -0.13593601 5.3558402
4.4056401 0.084187299 5.3430901
4.4093499 0.154634 5.33781
4.4078102 0.126109 5.3389802
4.4003801 0.070314497 5.3431501
4.3480701 -0.30806801 5.38482
4.3494701 -0.29405001 5.3829899
4.3652501 -0.284275 5.3682599
4.3599601 -0.28151801 5.3669801
4.3401699 -0.27723399 5.3845601
4.3641901 -0.26217499 5.3653498
4.34203 -0.26665401 5.3852201
4.37011 -0.24768899 5.3652802
4.3667402 -0.240888 5.3631101
4.3677702 -0.21757901 5.3606801
4.35074 -0.281647 5.3814301
4.36271 -0.26256201 5.3660302
4.31848 -0.262353 5.3572798
4.3544002 -0.257745 5.37711
4.3643899 -0.24839801 5.3645301
4.3737402 -0.218793 5.3624701
4.3723102 -0.22971299 5.36342
4.40239 0.040382601 5.3419099
4.3652 -0.24308801 5.3643498
4.3234901 -0.24195901 5.3625398
4.3432498 -0.24117801 5.3834901
4.36691 -0.228642 5.3628201
4.3238301 -0.230755 5.3594599
4.3576002 -0.227174 5.3775201
4.3497801 -0.219934 5.3825698
4.32517 -0.215941 5.3575902
4.3748598 -0.20827299 5.36481
4.3476701 -0.202475 5.3758302
4.3716002 -0.193574 5.36023
4.4040499 0.111384 5.3378601
4.3625102 -0.192497 5.3720398
4.3488798 -0.190816 5.3745899
4.37324 -0.180309 5.3589602
4.37498 -0.166875 5.3578501
4.3526301 -0.16516399 5.3743701
4.3802099 -0.15866099 5.3582201
4.35324 -0.15304799 5.37152
4.3664498 -0.151391 5.3704901
4.38167 -0.14887001 5.35779
4.40593 0.0337939 5.3432298
4.3822498 -0.144924 5.3575902
4.3681898 -0.135151 5.3686099
4.3702698 -0.118642 5.3674302
4.3978701 0.049748499 5.3419499
4.3832502 -0.109111 5.3547702
4.3852701 -0.10889 5.35496
4.3562598 -0.148966 5.3772101
4.3724799 -0.106063 5.3635602
4.4060702 0.0502108 5.3418899
4.3867698 -0.094503298 5.3529601
4.3741398 -0.080688998 5.3626399
4.3766699 -0.058984 5.36061
4.37957 -0.0324306 5.3577099
4.3951802 -0.0197093 5.3439202
4.4004102 0.0188511 5.3411498
4.3977199 0.0119231 5.3421402
4.3961101 0.0236698 5.34308
4.38939 0.041373201 5.3488998
4.3983302 0.066727802 5.3413301
4.3657799 -0.165123 5.3696098
4.40172 0.093750298 5.3390799
4.40838 0.083939902 5.3390398
4.4204998 0.151527 5.3315802
4.3773198 -0.183714 5.3611498
4.3255301 -0.202655 5.3538299
4.3589201 -0.21587101 5.3764701
4.3604598 -0.200565 5.3744798
4.40938 0.155003 5.3339
4.3645 -0.176955 5.3709698
4.3787999 -0.172231 5.3601398
4.4074998 0.13944601 5.3353601
4.4072299 0.13690101 5.33567
4.3776798 -0.151296 5.3580198
4.3839502 -0.13298599 5.3568802
4.3583298 -0.130346 5.3755298
4.35886 -0.119927 5.3730898
4.3592901 -0.111549 5.37114
4.39465 0.102738 5.3435702
4.3744402 -0.089186102 5.3619299
4.39574 -0.00183692 5.3428702
4.39083 -0.071426801 5.3492398
4.3934798 0.0926916 5.3444901
4.3897901 -0.052452799 5.34835
4.3905101 -0.045986999 5.34758
4.3940001 -0.043698601 5.3459301
4.3931499 -0.024106201 5.3453398
4.3969302 -0.0041706101 5.3420401
4.3895001 0.058239199 5.3477898
4.3818002 -0.0142819 5.3562598
4.3935599 -0.019727999 5.3446398
4.3729401 -0.018132599 5.3654799
4.3488102 -0.22556899 5.3822999
4.3966899 0.122809 5.3410201
4.4004202 0.154048 5.3383098
4.40131 0.161935 5.3375001
4.40306 0.177821 5.3358002
4.3993502 0.127941 5.3403602
4.4085598 0.20242 5.3354101
4.4057002 0.19164599 5.3481798
4.4077301 0.203192 5.3400602
4.4029999 0.13921399 5.3559499
4.4026499 0.15071499 5.3400502
4.4056301 0.177312 5.3355699
4.4084301 0.19324601 5.32833
4.4040399 0.158538 5.3417501
4.43015 0.374549 5.30686
4.40276 0.17408299 5.3336802
4.4025998 0.144024 5.3457098
4.4058199 0.197882 5.34161
4.4081702 0.18917499 5.3389702
4.4163299 0.199643 5.3259501
4.42061 0.20314001 5.3361802
4.41048 0.178941 5.3317499
4.4105101 0.19610301 5.3344202
4.4144101 0.22711299 5.3333702
4.4490499 0.41207901 5.3252401
4.4381099 0.37965101 5.30758
4.4370399 0.37836301 5.3060899
4.4405398 0.44917101 5.31703
4.4044499 0.14900699 5.34797
4.4065099 0.174831 5.33706
4.4104099 0.187857 5.33706
4.4364901 0.40969101 5.32023
