# .PCD v0.7 - Point Cloud Data file format
VERSION 0.7
FIELDS x y z
SIZE 4 4 4
TYPE F F F
COUNT 1 1 1
WIDTH 182
HEIGHT 1
VIEWPOINT 0 0 0 1 0 0 0
POINTS 182
DATA ascii
4.3397999 -0.0214309 5.4354601
4.3408298 -0.013403 5.4339399
4.3440599 0.018164201 5.4261899
4.3488798 0.0452011 5.4446802
4.3389902 -0.040459499 5.4452701
4.3449202 0.0054726 5.4760199
4.3443198 0.010046 5.48031
4.32866 0.0124861 5.48915
4.3511 0.0268628 5.4467001
4.35115 0.030619999 5.4447699
4.35675 0.061721001 5.48282
4.33288 0.078296296 5.47049
4.33637 0.101863 5.46597
4.33992 0.12532499 5.4616599
4.3669801 -0.170835 5.4015298
4.33637 -0.10031 5.4886799
4.3501201 -0.0069019501 5.4686098
4.3338699 0.0306492 5.4888201
4.3554702 0.0300062 5.4719801
4.3567801 0.064476803 5.4883599
4.3446798 -0.080594599 5.4685102
4.3400002 0.0056384699 5.47574
4.3545098 0.051341299 5.4746399
4.3433199 0.0037567699 5.4916902
4.35708 0.041316502 5.53901
4.3346 -0.088856101 5.4931598
4.3633099 -0.127947 5.4142499
4.3256998 0.0054780398 5.48241
4.3512101 0.039916001 5.4896898
4.2824798 -0.0566989 5.4372301
4.3513699 0.049585499 5.4855199
4.3608899 -0.136035 5.41469
4.3442798 -0.0718977 5.4426799
4.34514 0.035026599 5.3987699
4.3257899 -0.0224752 5.4994001
4.3538499 0.0461393 5.4393101
4.3452101 0.094572097 5.5717502
4.3396401 0.051888399 5.4664001
4.3439598 0.0088199303 5.4941502
4.3489599 -0.00382558 5.4812999
4.3495998 -0.00190948 5.4140401
4.3362398 -0.0029972 5.4723401
4.3432999 0.065483697 5.5243101
4.3318901 -0.0312391 5.4758
4.33672 0.105053 5.5294099
4.3335199 -0.0088184802 5.4790001
4.3508301 -0.16321 5.3875499
4.3529201 0.033514898 5.4226499
4.34551 -0.028482201 5.45157
4.3456302 -0.069588996 5.4205298
4.3375602 -0.00070015597 5.4737902
4.3343701 0.100115 5.5448198
4.3341098 0.051993601 5.49228
4.3386698 0.0404341 5.4906998
4.3194599 -0.057401501 5.4849401
4.3968101 0.048206601 5.5309801
4.3364601 -0.054181099 5.4904099
4.3331599 0.033450998 5.4769101
4.3512201 0.037438899 5.4104199
4.3243098 0.00028539199 5.47121
4.3400002 0.038131401 5.46839
4.3302898 0.00072940101 5.4549198
4.3281398 0.095655002 5.52738
4.3242602 0.00252589 5.4769201
4.3418298 0.10721 5.5429301
4.35005 0.00631704 5.4853001
4.3558402 0.055393599 5.4719801
4.35776 0.035117101 5.4990101
4.3494101 -0.0148062 5.45718
4.3480301 0.041610301 5.4019098
4.3306198 -0.029747801 5.4635201
4.3406 -0.0169954 5.4158602
4.3418899 1.50704e-05 5.40729
4.3434701 0.0178957 5.4026399
4.33358 -0.0061428798 5.4639201
4.3338599 -0.00223912 5.46417
4.3369598 -0.0187246 5.4730601
4.3376498 0.0322727 5.4986901
4.3257298 0.0095664104 5.4759002
4.32795 0.0055782702 5.4725599
4.3362699 -0.0061078798 5.41432
4.3384299 0.058066901 5.4622598
4.34197 0.047826201 5.4239602
4.3261499 -0.065644898 5.45473
4.3320098 -0.024393201 5.4580302
4.3175902 -0.0157966 5.47647
4.3401198 0.036975 5.4552898
4.3195901 0.044432599 5.4489298
4.33992 0.053872 5.4591599
4.3357401 0.0041599399 5.44414
4.3302898 -0.0279986 5.4556398
4.3287902 -0.0340336 5.4528499
4.3345799 -0.0083544999 5.4538202
4.3358102 -0.0090056797 5.4495802
4.3197298 0.0133831 5.4973798
4.33991 0.056588501 5.45538
4.3371601 0.055555101 5.4286299
4.3397799 0.053735401 5.4560499
4.3394899 0.0043369499 5.4787402
4.35358 0.057691101 5.4779301
4.3546 0.0470827 5.4731102
4.3383999 -0.072847597 5.4802799
4.36274 -0.163231 5.3974099
4.3671799 -0.130482 5.3920898
4.3385 -0.0049939398 5.4496398
4.3368402 0.055873901 5.4349699
4.3383598 0.0517997 5.4287701
4.3331599 0.058001 5.4549398
4.3063002 -0.127976 5.5116501
4.3345699 -0.0293427 5.4541502
4.3382001 -0.0098422496 5.4506202
4.3182001 -0.0044285301 5.4316001
4.34129 0.0307886 5.4495502
4.3252201 0.045456901 5.4978099
4.3268499 0.067510903 5.4946899
4.3345299 0.122275 5.4899402
4.3418999 0.029994501 5.44557
4.3366599 0.030276 5.4741702
4.33953 0.019176699 5.44349
4.3315301 -0.0087637501 5.4446702
4.3311801 0.0118259 5.4479899
4.3310099 0.018402901 5.4696598
4.33218 0.0155679 5.4711699
4.3376899 0.00432071 5.4449701
4.3313298 -0.0384061 5.44804
4.3330302 -0.0294441 5.4482002
4.3360701 -0.0177979 5.4502501
4.3334498 -0.0117 5.4465299
4.3256898 0.0016232301 5.50947
4.3271799 -0.00069924298 5.4465399
4.3291202 0.0073751202 5.4525299
4.3283701 0.031473901 5.5043001
4.3325601 0.026587401 5.4527402
4.3275299 0.0441535 5.5029602
4.3314099 0.057236198 5.5016398
4.3418798 0.045207798 5.4471598
4.3330402 0.075257801 5.4985399
4.3308001 0.0776776 5.49787
4.3365998 0.107159 5.49473
4.3347001 0.109904 5.4948301
4.3394599 0.129205 5.4931002
4.3352199 0.13454001 5.4924202
4.3438201 0.033204202 5.4468999
4.3408298 0.0186681 5.4461398
4.3164902 -0.0303714 5.4752302
4.3309898 -0.026557799 5.4454899
4.3393602 0.011712 5.4482999
4.3347502 0.103066 5.49544
4.3351302 0.120627 5.4933801
4.33675 0.13088 5.4924102
4.3364501 -0.0397797 5.4512701
4.33569 -0.0097249597 5.4470801
4.3424802 0.041628901 5.4447799
4.3309598 0.078301199 5.4980898
4.33322 0.093095198 5.4965
4.3255501 -0.0081849098 5.5106702
4.3339601 0.0086304797 5.4696298
4.3261099 -0.060199201 5.4802499
4.33746 0.0065361299 5.4461398
4.3438501 0.0417055 5.4438601
4.3387599 0.052140299 5.4449601
4.3193002 -0.0052575599 5.4737401
4.3401499 0.0552967 5.4490099
4.34271 0.059831399 5.4587798
4.3349099 -0.0157257 5.4612198
4.3308902 -0.065520801 5.45505
4.3347201 0.0033631001 5.4510002
4.3320298 0.0254882 5.49891
4.3466401 -0.176915 5.3956599
4.3348899 -0.0254151 5.4675002
4.3147302 -0.060194299 5.4813399
4.3189802 -0.0584291 5.47967
4.3208299 -0.022503201 5.4769301
4.3283501 -0.00613091 5.5106101
4.3305001 -0.067129202 5.4569602
4.3414602 -0.0102541 5.4489999
4.33567 0.0180734 5.4739199
4.3414602 0.016224001 5.4471102
4.33708 0.0238721 5.4460201
4.3399301 0.053312499 5.4521098
4.3281298 0.00830526 5.46945
4.3411899 0.052559201 5.4486399
