# .PCD v0.7 - Point Cloud Data file format
VERSION 0.7
FIELDS x y z
SIZE 4 4 4
TYPE F F F
COUNT 1 1 1
WIDTH 1584
HEIGHT 1
VIEWPOINT 0 0 0 1 0 0 0
POINTS 1584
DATA ascii
6.29287 0.165626 5.1809301
6.3707099 0.033227202 5.177
6.3652802 0.037611999 5.1712499
6.3387799 0.079577997 5.1792998
6.3730502 0.054989401 5.19519
6.5035501 0.24145401 5.2365499
6.5084801 0.237488 5.2414298
6.3771801 0.0294069 5.18929
6.3474498 0.061889801 5.1810298
6.32656 0.087124497 5.1781802
6.3229499 0.093144603 5.1667099
6.3435602 0.079300702 5.1809301
6.36271 0.0491446 5.1763401
6.4390802 -0.0063467501 5.2000399
6.4132299 0.0070729102 5.1886501
6.3548498 0.0675973 5.1933098
6.3381701 0.088878103 5.1673899
6.3293099 0.108029 5.1866498
6.3242898 0.100144 5.17418
6.3215499 0.123638 5.1763501
6.2895298 0.203462 5.1726298
6.2972898 0.145063 5.1807599
6.3264399 0.086285003 5.1795101
6.32444 0.086927503 5.1803899
6.35571 0.050616201 5.1754899
6.2978101 0.154673 5.1676602
6.2920799 0.211961 5.1791401
6.3042798 0.190056 5.1792498
6.3169599 0.124665 5.1763
6.3028202 0.157878 5.18013
6.4134202 -0.00133904 5.1900902
6.38135 0.023920899 5.1768599
6.3660002 0.033624198 5.1795998
6.3765502 0.033962101 5.1757102
6.3898501 0.106318 5.14502
6.4069099 0.142129 5.15344
6.3478699 0.0568702 5.1817799
6.2996502 0.15404899 5.1704702
6.2944498 0.168635 5.1823602
6.3003702 0.152556 5.1833401
6.2972898 0.143737 5.1806698
6.3130398 0.123941 5.1827402
6.30797 0.12723599 5.1805902
6.3292098 0.088832401 5.18397
6.3179998 0.109177 5.1851201
6.3018699 0.168833 5.178
6.31953 0.111307 5.1846299
6.34691 0.074972197 5.1828899
6.3687 0.043997101 5.1813002
6.3091302 0.13783801 5.17908
6.3119602 0.12705 5.1842899
6.3069501 0.14467201 5.17313
6.3238702 0.094845302 5.1696301
6.3147402 0.128167 5.1719599
6.316 0.121294 5.1703701
6.3950801 0.0080203796 5.1766801
6.39148 0.029610099 5.19068
6.38199 0.029205101 5.1808801
6.3732901 0.055220801 5.1961598
6.3701801 0.0464519 5.1789498
6.3296299 0.092830598 5.16716
6.34162 0.079576299 5.1912498
6.2932701 0.16903999 5.1841502
6.3022699 0.161957 5.1752701
6.3509302 0.062807597 5.1852598
6.2985201 0.146736 5.1845298
6.3141699 0.117524 5.1834402
6.3206301 0.123787 5.1786499
6.3235698 0.105514 5.1881399
6.9409599 0.135674 5.2519698
6.9261298 0.136648 5.2520399
6.8874998 0.132504 5.2448201
6.88309 0.13295101 5.2513299
6.86063 0.22383399 5.2989802
6.9669499 0.0753939 5.22789
6.8621402 0.0757735 5.2356901
6.8705502 0.082891896 5.2239599
6.8438001 0.107032 5.2378502
6.8557801 0.123792 5.2393799
6.8355799 0.173021 5.2490802
6.8302498 0.18475901 5.2512398
6.9419699 0.133332 5.2525201
6.8148899 -0.0081682801 5.2259102
6.8196201 0.0049543702 5.2283101
6.8153601 0.0383901 5.2314401
6.8294001 0.0588025 5.21242
6.8309202 0.068260603 5.22157
6.8800802 0.14279599 5.24541
6.8084002 0.103986 5.2343602
6.8136501 0.118703 5.23841
6.8681898 0.159191 5.22891
6.8215699 0.137798 5.2426701
6.8584199 0.22294199 5.2976198
6.8372502 0.175137 5.2481098
6.75453 -0.144922 5.2045002
6.7527699 -0.115593 5.21559
6.7923298 -0.069146797 5.2136598
6.7909598 -0.069257297 5.2130198
6.7934299 -0.064836502 5.2150698
6.8053699 -0.035884298 5.2181501
6.8084698 -0.0308971 5.2198
6.7854099 -0.0291641 5.20609
6.8108902 -0.0234288 5.2202401
6.7981901 0.000163413 5.21206
6.8275499 0.0117942 5.2224002
6.8003802 0.00538554 5.2123699
6.8295002 0.017073199 5.22329
6.7876701 -0.0224571 5.2085199
6.7543802 0.0099541098 5.2196698
6.8169198 0.040372699 5.2182999
6.7690301 0.024989801 5.21594
6.8654799 0.062996097 5.2333598
6.87957 0.090082102 5.2330098
6.8455501 0.097184703 5.21772
6.7831001 0.066929303 5.2342601
6.9397202 0.13926999 5.2460198
6.7899098 0.0747853 5.2340002
6.7594099 0.071254298 5.22579
6.7632198 0.075323798 5.2258301
6.8899899 0.13715599 5.2392702
6.8022799 0.098583199 5.2386298
6.8591499 0.13581701 5.2255502
6.89818 0.164279 5.2374401
6.7860198 0.108113 5.2329702
6.8177099 0.13097601 5.2393699
6.7807202 0.12982699 5.2279201
6.79812 0.14556199 5.2344999
6.8085399 0.104573 5.23701
6.8487401 0.110346 5.2333698
6.76683 0.044635199 5.2313099
6.7989202 0.057156298 5.2172599
6.8220301 0.054861601 5.21661
6.7898898 0.046372298 5.2175202
6.8478098 0.106571 5.2363901
6.82096 0.0547566 5.2172899
6.8582401 0.133213 5.2245698
6.8071399 0.103936 5.2383499
6.7688398 0.024181699 5.21521
6.8000302 -0.048422199 5.2165298
6.7475901 -0.16448499 5.2005801
6.7470999 -0.162212 5.1993098
6.7497401 -0.156607 5.2007599
6.8089199 -0.0283817 5.2182202
6.7538199 -0.115243 5.2137198
6.8132401 -0.0182113 5.2193899
6.7850199 -0.033765301 5.2081299
6.8110399 -0.023338299 5.2188401
6.8211098 -0.000222284 5.2226
6.8055801 -0.00031730501 5.2236199
6.8003802 0.00628848 5.2108402
6.8313198 0.0213397 5.2265201
6.8312402 0.0243739 5.22439
6.8537002 0.036183901 5.2269101
6.7733698 0.0276276 5.2167802
6.8670998 0.065667696 5.21316
6.7484899 0.026354801 5.2269001
6.7947402 0.054247301 5.2167902
6.7695999 0.0488672 5.23173
6.8833699 0.101174 5.2344398
6.8471298 0.105581 5.2197199
6.7973499 0.086341999 5.2328601
6.7568998 0.069732897 5.2252002
6.7716398 0.081701897 5.2234402
6.7681298 0.083828598 5.2260098
6.8863602 0.14405601 5.2346902
6.7926302 -0.067147903 5.2135201
6.7966599 0.057258401 5.2172298
6.8384099 0.079226203 5.2262902
6.78443 0.123884 5.2291298
6.8219299 0.13827699 5.2407498
6.82585 0.154874 5.24369
6.7981801 0.14918 5.2350101
6.7904601 0.073836103 5.2323799
6.83356 0.197879 5.2459402
6.8736401 0.083694801 5.23387
6.7925801 -0.069331303 5.2132902
6.8235798 0.045668099 5.2181001
6.9003901 0.207982 5.1896501
6.75734 -0.104593 5.2122502
6.7829499 -0.039313599 5.21595
6.7610402 0.040500801 5.2269402
6.78089 0.062521704 5.2332602
6.7846799 0.116775 5.2314801
6.78476 0.119034 5.2316599
6.81637 -0.0095364898 5.2213502
6.8215899 -0.00155404 5.22299
6.8271899 0.0112637 5.2249498
6.8530302 0.035944 5.2287102
6.8214202 0.036012899 5.2287798
6.8636298 0.061177 5.2326598
6.8246002 0.045892499 5.2311301
6.9303799 0.099784397 5.2067099
6.8250899 0.0609858 5.21523
6.8738399 0.082869299 5.2341499
6.92207 0.0969657 5.2622099
6.8447099 0.078213498 5.2323699
6.8680801 0.096128397 5.2258101
6.8853302 0.117568 5.2176099
6.9882598 0.14404801 5.25459
6.8455901 0.100556 5.2195201
6.8874302 0.12606899 5.2192302
6.8648601 0.144131 5.2254901
6.8924899 0.1592 5.2399302
6.8116899 0.118728 5.2358499
6.8694601 0.162742 5.2249198
6.8225999 0.14281499 5.23979
6.8273001 0.159987 5.2410102
6.8429399 0.201598 5.2447
6.8646002 0.136765 5.2309098
6.8502402 0.107089 5.2287202
6.8558798 0.039629199 5.2282
6.7919798 -0.045429599 5.2157898
6.7996202 -0.00102636 5.2150002
6.8008699 0.0091582099 5.2115598
6.7960401 0.055323299 5.2147698
6.80756 -0.033175901 5.2172298
6.8080001 -0.0258814 5.21488
6.84443 0.094902799 5.2202902
6.8213902 0.14190599 5.2395101
7.0121999 0.108012 5.2560201
6.8677201 0.104137 5.2330198
6.8867202 0.137284 5.2381601
6.85745 0.12588499 5.23841
6.8901401 0.152964 5.23599
6.8636799 0.144581 5.22544
6.8884201 0.152264 5.23528
6.8559198 0.048563201 5.2115798
6.8664799 0.077899799 5.2126198
6.8690901 0.096161798 5.2271199
6.8425598 0.0823026 5.2361598
6.8617802 0.096947297 5.2319398
6.8853798 0.117505 5.2423
6.8502202 0.106858 5.2351298
6.8914499 0.137805 5.2421799
6.8680301 0.15605099 5.2261901
6.9992199 0.13406099 5.2522001
6.9302502 0.200752 5.2658701
6.9591098 0.040773802 5.19065
6.9430099 0.137218 5.2435799
6.9709301 0.0712649 5.22506
6.7989302 -0.049465299 5.2182899
6.8025999 -0.039666999 5.2195101
6.7875299 -0.023907101 5.2073998
6.8116999 -0.016888499 5.2227898
6.81744 -0.00597867 5.2244902
6.7988501 0.00156897 5.2118902
6.9279199 0.091600999 5.20086
6.7875299 0.0442935 5.21627
6.8024998 0.064143799 5.2211699
6.7679601 0.046390999 5.2306299
6.7810102 0.123357 5.2326899
6.7780099 0.124029 5.23173
6.80585 0.101103 5.2376599
6.8248601 0.0087409699 5.2228699
6.7961402 -0.0777658 5.22299
6.82478 0.13838699 5.2399702
6.7975202 -0.054130401 5.2172999
6.8241701 0.057951801 5.2165298
6.8195701 0.1283 5.2374601
6.80832 0.023132 5.2144198
6.8357801 0.072559699 5.2332201
6.8482299 0.103853 5.2334499
6.8692498 0.15819199 5.2283902
6.8596201 0.139825 5.2260599
6.8910398 0.13813899 5.2392302
6.8501902 0.10983 5.2344699
6.99259 0.087835602 5.2673202
7.0434399 -0.0064336001 5.2245498
6.6880102 -0.28206 5.1793499
6.7544398 -0.136215 5.18537
6.69063 -0.26749501 5.1733599
6.6949601 -0.257467 5.17592
6.6942101 -0.253409 5.17662
6.7006698 -0.24963599 5.1774902
6.7033501 -0.241409 5.1775599
6.71417 -0.22798599 5.17975
6.7135701 -0.22649901 5.1796498
6.7188601 -0.220273 5.1816502
6.7161198 -0.21874601 5.1806598
6.7065701 -0.20293701 5.1831002
6.73244 -0.19235601 5.1852002
6.7306099 -0.191203 5.18503
6.7365398 -0.18673 5.1856399
6.7319198 -0.187252 5.1844001
6.7350602 -0.177707 5.1855698
6.7423301 -0.17263199 5.18611
6.7445202 -0.16601101 5.1866899
6.7462802 -0.16408999 5.1870399
6.7462401 -0.160807 5.1868501
6.7479701 -0.159004 5.1873598
6.7505002 -0.151409 5.1868401
6.7316499 -0.158182 5.1911998
6.6862202 -0.27267301 5.1774502
6.6588101 -0.27374601 5.1746302
6.6652699 -0.27449 5.1802702
6.68753 -0.26810601 5.1787901
6.6684198 -0.26393399 5.1796999
6.6592398 -0.22207899 5.1015401
6.69734 -0.25602499 5.18083
6.6747599 -0.25414401 5.1814098
6.6608701 -0.208002 5.0994802
6.6661501 -0.206699 5.1016698
6.6619601 -0.204216 5.0994902
6.67908 -0.247421 5.1823602
6.704 -0.23772199 5.1838498
6.6682 -0.195389 5.1016002
6.684 -0.238785 5.1831899
6.6936102 -0.237316 5.1919298
6.7158098 -0.22426701 5.1851201
6.6927299 -0.22532 5.1856999
6.6949601 -0.22187001 5.1862702
6.7210498 -0.215416 5.1866598
6.6943798 -0.21985801 5.1855698
6.71736 -0.21452101 5.1869102
6.7045398 -0.20211101 5.1876998
6.7399702 -0.17082 5.19032
6.7283401 -0.163794 5.1960402
6.7315602 -0.149519 5.1943402
6.7552099 -0.13852701 5.1940899
6.7592301 -0.133718 5.1967201
6.7337799 -0.13858899 5.1921802
6.73632 -0.13450301 5.1924901
6.73634 -0.13038599 5.1916399
6.7386398 -0.126912 5.1927299
6.7227201 -0.16226099 5.1914802
6.7467799 -0.162111 5.1907501
6.7365198 -0.182034 5.1897502
6.6961098 -0.21810099 5.1859999
6.7181702 -0.22070099 5.18576
6.7077498 -0.238314 5.1828699
6.65592 -0.24215101 5.1084299
6.6564898 -0.24005499 5.10818
6.6619501 -0.229874 5.1080599
6.6634102 -0.21935099 5.1068401
6.6645298 -0.215174 5.1065602
6.6943998 -0.24285799 5.1856699
6.6611199 -0.20232099 5.1037402
6.6863599 -0.235396 5.18715
6.6953502 -0.222247 5.18888
6.6987901 -0.214636 5.1894398
6.7016702 -0.209006 5.1901598
6.7130098 -0.187765 5.1925998
6.71384 -0.179801 5.1921401
6.7301898 -0.15798301 5.1936698
6.7265301 -0.15401401 5.1950102
6.7516098 -0.143161 5.1942401
7.0205898 0.0713237 5.2611799
6.7581301 -0.136923 5.20261
6.7616501 -0.127606 5.1989799
6.7379498 -0.126993 5.1907101
6.7691398 -0.094382502 5.1859002
7.01823 0.0117247 5.22153
6.7983198 -0.041233499 5.2091098
6.9527798 0.038235798 5.2067599
6.8082199 -0.0252234 5.2097301
6.80407 -0.0124824 5.1909099
6.6923599 -0.26209399 5.1828599
6.8127599 -0.0082872603 5.2118402
6.7971401 0.00027902401 5.2151899
7.0310302 0.0067837699 5.2274499
6.69102 -0.228044 5.1882501
6.7283502 -0.193275 5.1908898
6.7249999 -0.20523401 5.1905198
6.7476902 -0.156315 5.1947498
6.7254701 -0.168722 5.20296
6.7665601 0.076109298 5.2081099
6.6623702 -0.27777401 5.1810999
6.6571202 -0.23392799 5.1095099
6.65838 -0.21846101 5.1077499
6.7279401 -0.150187 5.1956301
6.7041898 -0.20160399 5.18997
6.7189598 -0.17103601 5.1933799
6.73768 0.049520101 5.2168698
6.7375498 -0.136843 5.2007098
7.0575099 -0.012329 5.21878
6.7871299 -0.0462364 5.2197199
6.7879601 -0.042420901 5.22089
6.78793 -0.0173475 5.2080402
6.8192501 -0.00057187199 5.2132101
6.7973199 -0.00021475001 5.2136202
6.8031802 0.00074314699 5.2210898
6.8296499 0.0235002 5.21735
6.5974302 -0.048716199 5.1969099
6.8106799 0.030288899 5.2133799
6.6525302 -0.0315102 5.2111001
6.6331601 -0.0373368 5.2079902
6.62187 -0.041412901 5.2070098
6.8544698 0.047714598 5.2237401
6.6486402 -0.0320304 5.2118602
6.6179199 -0.0394191 5.2045498
6.6043801 -0.046177801 5.2056198
6.9256601 0.099172898 5.2018299
6.5929599 -0.045876101 5.20116
6.5871301 -0.044773601 5.2006302
6.8621402 0.060811099 5.2265401
6.82092 0.053188499 5.2161102
6.8490801 0.063148104 5.2223501
6.8404298 0.069715902 5.2097301
6.59937 -0.0216127 5.1952701
6.8697901 0.082359999 5.2309699
6.8273401 0.071281999 5.22012
6.7474599 0.027756199 5.2263699
6.6929002 0.016868901 5.2084899
6.8368502 0.067991003 5.2320499
6.6426401 0.0090312399 5.1915698
6.5931301 -0.00133544 5.1797299
6.7968502 0.073564298 5.2134299
6.7645502 0.044477601 5.23104
6.59271 0.0014051 5.1802201
6.9755201 0.069195502 5.2245402
6.9454398 0.0371725 5.2048402
6.6618199 -0.227853 5.1099801
6.6577902 -0.225584 5.10954
6.6768699 -0.25055999 5.1851101
6.6661801 -0.196164 5.1058302
6.6946902 -0.236619 5.1942701
6.6933999 -0.223616 5.1880498
6.6945801 -0.219524 5.1880202
6.7347598 -0.181575 5.1938801
6.7182899 -0.173251 5.19349
6.71738 -0.171032 5.1929598
6.7150002 -0.17940401 5.1926599
6.6884999 -0.29497999 5.18117
6.6667299 -0.27004901 5.1792402
6.6919699 -0.26341599 5.1867199
6.7032299 -0.249246 5.1882901
6.6647301 -0.204373 5.1064301
6.6945901 -0.23956899 5.1996999
6.6910601 -0.22877499 5.1852198
6.7252402 -0.207699 5.1943202
6.7074299 -0.19840799 5.1907802
6.7279902 -0.193418 5.19279
6.74015 -0.174523 5.1974602
6.72474 -0.175349 5.1999602
6.7447801 -0.16528 5.1980901
6.7505498 -0.158463 5.19944
6.7526398 -0.149801 5.20083
6.7305198 -0.146052 5.1964402
6.7577 -0.12757 5.1995502
6.80966 0.12014 5.24193
6.9430599 0.040111899 5.2045498
6.7905998 -0.0102938 5.2060099
6.7941599 -0.0033456199 5.2080402
6.9894199 0.063715003 5.21767
6.8257799 0.0115047 5.2158198
6.5998602 -0.0547668 5.20471
6.5819402 -0.053082 5.19875
6.6586399 -0.031612001 5.2146401
6.6096601 -0.044585399 5.2080002
6.5982499 -0.045333501 5.2034602
6.5809698 -0.050573699 5.2042999
6.6631498 -0.0290513 5.2186599
6.5659299 -0.045497999 5.1971402
6.5619001 -0.048257101 5.19873
6.9135098 0.0891513 5.2014399
6.8157101 0.037249099 5.2195201
6.5920901 -0.0302046 5.1949501
6.5840001 -0.032857299 5.19663
6.5763202 -0.034857199 5.1976099
6.5984902 -0.0276476 5.20188
6.5622802 -0.0308333 5.1898699
6.5281 -0.034452699 5.1813302
6.5685401 -0.0277342 5.1957502
6.5455599 -0.0315702 5.1887598
6.5252199 -0.033523399 5.1807599
6.75667 0.027177701 5.2263098
6.5971599 -0.0040293201 5.18538
6.58635 -0.0076427199 5.1842799
6.8660302 0.076280698 5.2278099
6.6447802 0.0100329 5.1950002
6.5960398 -0.0031143299 5.1859798
6.5824199 -0.00313508 5.1834502
6.5739698 -0.00342323 5.1816001
6.8362999 0.069187 5.2335401
6.5717902 -0.0025309799 5.18156
6.7602701 0.039596502 5.2323599
6.5601902 -0.0027421 5.1778598
6.8738198 0.091324799 5.2326598
6.7985101 0.075453401 5.2118402
6.5711098 -2.70207e-05 5.1825299
6.5240598 -0.019060099 5.18262
6.7994499 0.076714702 5.2225299
6.73597 0.054241799 5.2178302
6.53478 0.00212413 5.1709599
6.8831902 0.12333 5.2183099
6.5709801 0.0106497 5.18256
6.5348902 0.0023684001 5.17277
6.5290899 0.0058124801 5.1675301
6.84726 0.105551 5.2290401
6.7878699 0.074825101 5.2353702
6.9208498 0.13409699 5.2487402
6.7919798 0.082890898 5.2364402
6.7632399 0.0824074 5.2236199
6.7969999 0.0952591 5.2385802
6.5711098 0.039437901 5.1764002
6.8821201 0.148222 5.2322502
6.53368 0.00195382 5.1705599
6.8836799 0.118899 5.2142
6.5581198 -0.0236398 5.1896
6.6655202 -0.26796901 5.1792898
6.8129501 -0.0147428 5.2154002
6.6606898 -0.237463 5.1103802
6.6703801 -0.262301 5.1802201
6.6637201 -0.226208 5.1100502
6.6793098 -0.246875 5.1828599
6.66364 -0.214145 5.10812
6.7073998 -0.239306 5.19028
6.68537 -0.236899 5.1841798
6.6985202 -0.214176 5.1866102
6.7238302 -0.212274 5.1944599
6.7259798 -0.160548 5.1973701
6.7530098 -0.117031 5.2147498
6.8498502 0.114177 5.22932
6.8710399 0.0824828 5.23242
6.7469001 0.028684 5.2277198
6.8181601 0.049841799 5.2172799
6.8213801 0.051715199 5.2165298
6.7191501 -0.169608 5.1921902
6.8039198 0.00040224701 5.2206001
6.7225399 -0.211628 5.1929898
6.72121 -0.21462999 5.1933599
6.6833601 -0.27641201 5.1852002
6.6889801 -0.268536 5.1870799
6.67135 -0.26062199 5.17905
6.6648302 -0.20731901 5.10636
6.7098298 -0.234542 5.1910801
6.6589699 -0.19957 5.1045699
6.6620002 -0.19500101 5.1050501
6.71735 -0.221347 5.1926398
6.8279901 0.18471 5.2456102
6.7126698 -0.186021 5.18995
6.7358398 -0.182594 5.1965199
6.52988 0.060517699 5.18893
6.7238498 -0.169393 5.20049
6.7206001 -0.16667099 5.1943102
6.7490101 -0.153024 5.2017002
6.7269802 -0.151969 5.1942801
6.7996402 -0.0429479 5.2154799
6.8059702 -0.0290928 5.2163901
6.7897801 -0.0104632 5.2081099
6.58813 -0.047954202 5.20505
6.6591401 -0.0303418 5.2168102
6.8572402 0.048785798 5.20749
6.8060198 0.0271267 5.21311
6.6798201 -0.019810701 5.2179399
6.5823598 -0.039669301 5.2066698
6.5701399 -0.040709101 5.2021198
6.5534 -0.038787901 5.1988301
6.8576198 0.052683201 5.2287402
6.8134599 0.0361678 5.2291698
6.54882 -0.025693901 5.1911998
6.85144 0.070119403 5.22399
6.57195 -0.0119095 5.18963
6.56076 -0.0141976 5.1869302
6.5233002 -0.0346145 5.19486
6.5767899 -0.0085482802 5.1902099
6.5605998 -0.0090627903 5.18505
6.5508199 -0.010481 5.18677
6.8294201 0.0737058 5.22544
6.5440302 -0.0073241601 5.18152
6.5170598 -0.0194741 5.1832299
6.50878 -0.025816301 5.1916499
6.7690902 0.0514827 5.2323098
6.5704999 0.0063170101 5.1851501
6.5674901 0.0108892 5.1826301
6.5205102 -0.0068585901 5.1824999
6.7853398 0.070999198 5.2349
6.5149498 0.00074112898 5.17663
6.50635 -0.0021843701 5.1756501
6.4932799 -0.0136529 5.1830301
6.93785 0.096712202 5.2888799
6.8464599 0.106013 5.2273102
6.8101301 0.093686499 5.22299
6.5081201 0.00136316 5.1743598
6.5708299 0.0228917 5.1863599
6.51933 0.0059368298 5.1792302
6.4974399 -0.0083075399 5.1849799
6.4849 -0.00673293 5.1844501
6.4777298 -0.0054950402 5.1789198
6.4721899 -0.0086235497 5.1796899
6.4946599 0.0080404896 5.17383
6.4927802 0.0099208299 5.1725798
6.8015499 0.099929199 5.2389798
6.5723801 0.046273898 5.17524
6.7808399 0.121466 5.2283902
6.4965301 0.025619101 5.17664
6.57199 0.061455902 5.1804299
6.7779298 0.124673 5.2316799
6.94769 0.196117 5.2544799
6.4717302 0.0359869 5.1697998
6.7951298 0.092926398 5.2377901
6.5239601 -0.0075615002 5.18297
6.5316 -0.00634747 5.18084
6.57794 -0.0099642603 5.1901202
6.6001301 -0.0041109198 5.1883702
6.8099699 0.033075199 5.2139502
6.8296499 0.0273221 5.2242498
6.6159601 -0.0461725 5.2129502
6.6214199 -0.043896299 5.2122798
6.6297998 -0.041852701 5.2133398
6.65486 -0.236258 5.1088901
6.6581802 -0.224244 5.1076698
6.6992202 -0.25179699 5.1891499
6.6866598 -0.23606101 5.1832099
6.6931601 -0.22546101 5.1847401
6.7302999 -0.19632401 5.1949601
6.7147102 -0.18252701 5.1926098
6.7440801 -0.16645101 5.1989102
6.9330802 0.15514299 5.24582
6.7356601 0.054374602 5.2169299
6.8864002 0.1213 5.2118502
6.8682899 0.079390697 5.2348399
6.7553701 0.026337201 5.2265601
6.7398601 -0.175542 5.1972899
6.8011699 -0.000893738 5.22156
6.6627998 -0.281746 5.1773801
6.6541901 -0.24002799 5.1079001
6.6969299 -0.25567999 5.1889701
6.6592999 -0.212954 5.1061101
6.7079501 -0.23818099 5.1914902
6.6887498 -0.235001 5.1834798
6.6679702 -0.196005 5.1065102
6.7136202 -0.226533 5.1918602
6.7254601 -0.206053 5.1949801
6.7249398 -0.20284501 5.1930199
6.7103601 -0.189989 5.1894302
6.7203302 -0.17058501 5.1904402
6.7418399 -0.17013399 5.1985102
6.7943902 -0.055944201 5.2144799
6.79776 -0.048865501 5.2171698
6.7874799 -0.0336552 5.2224998
6.80864 -0.022515601 5.2175899
6.6011 -0.0530173 5.2160902
6.9769702 0.069356799 5.2226601
6.6828299 -0.0164636 5.21802
6.5872502 -0.0373854 5.2045698
6.6066599 -0.024396401 5.2005501
6.55197 -0.042625301 5.2016501
6.8274598 0.030411299 5.22791
6.8154502 0.041607201 5.2097902
6.5251999 -0.040988501 5.2002501
6.9243002 0.097020499 5.2034898
6.5721698 -0.0148225 5.1910901
6.9201498 0.100582 5.20082
6.5780501 -0.0104405 5.19063
6.5116901 -0.036135901 5.1971898
6.5520501 -0.0139254 5.1912198
6.83003 0.0768594 5.2180901
6.56707 0.00733918 5.1831698
6.5697999 0.0081588496 5.1862602
6.4957099 -0.016012 5.1863298
6.51755 -0.00049639499 5.1791
6.4921198 -0.010015 5.1812301
6.4980798 -0.0088570202 5.1876998
6.4953098 -0.00499616 5.1834898
6.5202398 0.0083769904 5.1813898
6.4754901 -0.0070888801 5.1828299
6.7917299 0.083592303 5.2364302
6.8603301 0.14069 5.22119
6.4684601 0.0121997 5.1722898
6.4649401 0.0116874 5.171
6.4969802 0.0244385 5.1771698
6.80825 0.115426 5.2387199
6.4670401 0.017777 5.1711798
6.7807498 0.116072 5.2291498
6.5945601 0.059125599 5.1956501
6.7958798 0.146911 5.2325101
6.4338698 0.0212387 5.17554
6.4295201 0.026320999 5.17485
6.5364399 0.066992097 5.1921401
6.4244099 0.033640198 5.17097
6.4197302 0.044777598 5.1648302
6.8309798 0.194801 5.2452102
6.4366798 0.064020902 5.1687002
6.4913998 0.101368 5.1650801
6.8168101 0.13713901 5.2400699
6.7781901 0.123704 5.2280002
6.8487401 0.111958 5.2298598
6.7409701 -0.172738 5.1986799
6.6663599 -0.270457 5.1763201
6.69315 -0.262146 5.1880598
6.6581802 -0.225389 5.1069698
6.6835499 -0.240987 5.18116
6.5317502 -0.0106164 5.1845298
6.7221198 -0.210566 5.1940198
6.5693598 -0.0090218997 5.1872301
6.5755701 -0.0138116 5.1913099
6.5464802 -0.026303999 5.1921601
6.6015501 -0.0054877899 5.1890602
6.55124 -0.032342501 5.2003899
6.91851 0.091860898 5.19911
6.6004801 -0.024309199 5.1975098
6.7301002 -0.14708801 5.19416
6.6595602 -0.0304968 5.2147598
6.8238201 0.0145495 5.2213202
6.8008599 -0.039909799 5.2166901
6.7976398 -0.0448176 5.2147698
6.8315101 0.18772601 5.24085
6.8270102 0.171914 5.2404499
6.8012099 0.099650003 5.2378998
6.9832702 0.062070001 5.22193
6.69767 -0.25739601 5.1905398
6.6629601 -0.22891501 5.1087799
6.6644201 -0.21591599 5.1075001
6.71312 -0.22942901 5.1925702
6.7233801 -0.21033099 5.1944499
6.7301602 -0.199081 5.19803
6.7255702 -0.161525 5.19203
6.7362299 -0.139441 5.1903601
6.7535601 -0.111531 5.2119598
6.7958202 -0.049913701 5.2152901
6.7404499 -0.173654 5.1988502
6.5991802 -0.053485099 5.2027102
6.8034701 0.0108845 5.2049398
6.63269 -0.040445 5.21382
6.68507 -0.016851399 5.2179399
6.5624499 -0.042273201 5.2027998
6.5469599 -0.039958999 5.1985302
6.5797601 -0.030480901 5.2020001
6.37607 0.077394702 5.1689301
7.0157199 0.071247198 5.2597799
6.8242302 0.056641001 5.2100902
6.5575399 -0.0128666 5.1871099
6.5450001 -0.019104499 5.1905499
6.8253999 0.059992999 5.20997
6.6880298 0.0176007 5.2112198
6.7479901 0.0311947 5.2239399
6.5271602 -0.0160469 5.19241
6.5212498 -0.0153303 5.19135
6.5168099 -0.0054460499 5.1774502
6.8652601 0.082519896 5.2269301
6.7665601 0.046983398 5.2293501
6.7404799 0.054858301 5.2199798
6.4952202 0.000376843 5.17801
6.4833202 -0.0103853 5.1872401
6.5179601 0.0127009 5.1808
6.8446898 0.102711 5.2299099
6.7888198 0.079271398 5.2333398
6.4885502 0.0081339702 5.17449
6.7624798 0.083164103 5.2252402
6.4693999 0.0077214199 5.1728401
6.4517899 -0.0104434 5.1886601
6.4907899 0.0149851 5.1769099
6.5716 0.045967601 5.1805902
6.4629402 0.0146946 5.1700501
6.4537001 0.0156544 5.1736898
6.4317002 0.00316831 5.18296
6.7813201 0.121774 5.22751
6.8678198 0.160313 5.2292399
6.82549 0.13552099 5.2380099
6.5756402 0.069609299 5.1835799
6.4756198 0.036820699 5.17277
6.7811399 0.12769499 5.2305002
6.4787698 0.047669198 5.1729398
6.4293299 0.0231553 5.1759501
6.8347402 0.162719 5.2417898
6.4229698 0.0400206 5.1686401
6.40307 0.0241019 5.1788101
6.3951402 0.0184731 5.1810899
6.4868698 0.070939399 5.1728601
6.4278698 0.049892198 5.1681099
6.39641 0.027957 5.1802502
6.4029298 0.0456618 5.1728702
6.4001999 0.0485388 5.17378
6.3852901 0.042342301 5.17384
6.39644 0.051326301 5.1721201
6.3801198 0.047072701 5.1745801
6.39113 0.057089899 5.1718001
6.3720102 0.0409449 5.1784301
6.45011 0.083749197 5.1803298
6.3751001 0.0532979 5.1716599
6.3880401 0.064529203 5.1689301
6.39921 0.088639699 5.1603799
6.38486 0.079884201 5.1627598
6.4144902 0.098065898 5.1637201
6.4407701 0.113457 5.16786
6.3776102 0.074088402 5.16998
6.8292899 0.161328 5.24405
6.4289398 0.027771199 5.1743002
6.4758301 0.0070912298 5.17454
6.6661801 -0.273922 5.17418
6.6914301 -0.26578301 5.1879401
6.6947699 -0.26151499 5.18893
6.49686 -0.0111075 5.1898499
6.5096502 -0.00216925 5.1777902
6.8702698 0.082372896 5.2340698
6.7300901 -0.19556899 5.1955199
6.7350702 -0.185839 5.1969099
6.5464101 -0.0178759 5.1924801
6.5690298 -0.0077081099 5.1880498
6.6018701 -0.0042488398 5.18858
6.8166399 0.038395502 5.2079201
6.8096099 0.0230697 5.2063198
6.6579499 -0.028877599 5.2136302
6.82265 0.0081274901 5.2224698
6.8624101 0.14371701 5.2199602
6.8471999 0.107274 5.2330899
6.7926102 0.082993001 5.2339802
6.7082701 -0.238718 5.1914001
6.61341 -0.043816201 5.20613
6.6898298 -0.26918799 5.1870499
6.6784201 -0.25537199 5.1760001
6.7035999 -0.245956 5.19033
6.3431501 0.096143998 5.1738701
6.7186999 -0.219359 5.1936598
6.7084098 -0.205716 5.18402
6.7132702 -0.19005799 5.1838799
6.73699 -0.18144 5.1979098
6.7434301 -0.166035 5.2000799
6.7972698 -0.078089997 5.2199302
6.3551698 0.111543 5.1635799
7.01653 0.0136776 5.2351899
6.6649499 -0.026720701 5.2156601
7.0252099 0.044203401 5.2597299
6.8246398 0.054209199 5.20961
6.69279 0.0120005 5.21457
6.5667801 -0.0058078701 5.18262
6.8632998 0.065651901 5.2147999
6.6870999 0.0147882 5.2114801
6.5182099 -0.0071390201 5.1819601
6.49301 -0.0152826 5.18542
6.8688502 0.083566397 5.2241101
6.8320699 0.0778872 5.2143698
6.5177002 -0.00079199002 5.1817198
6.73875 0.065006196 5.2174201
6.4432702 -0.013092 5.1891098
6.7614398 0.0802918 5.2232399
6.5680799 0.035836902 5.1858602
6.4970798 0.018038601 5.18051
6.4945798 0.021758201 5.17977
6.7704601 0.095752798 5.2262301
6.9366498 0.14847 5.2453899
6.45784 0.018107301 5.1708398
6.7747202 0.102152 5.2275801
6.4339199 0.00163465 5.1842899
6.8095398 0.11491 5.2369399
6.5752902 0.059501398 5.1855798
6.8801699 0.146752 5.2353101
6.8134098 0.125651 5.2364802
6.5763001 0.0740012 5.1854601
6.41572 0.0119986 5.1827502
6.8235898 0.147342 5.2371202
6.4764099 0.049651101 5.1737499
6.4098001 0.020112 5.1781301
6.39712 0.0192024 5.1792402
6.4124098 0.041242599 5.1709599
6.3959699 0.0288928 5.1798
6.40696 0.0407487 5.1731901
6.4330401 0.055354301 5.1722798
6.4086199 0.043456499 5.1730499
6.44207 0.071253203 5.1747899
6.3817601 0.043336298 5.17518
6.3931198 0.055656798 5.1711798
6.3850698 0.065739401 5.1691699
6.37186 0.054289099 5.1747699
6.36868 0.062393099 5.1691899
6.40448 0.089319997 5.1641402
6.4099202 0.092882298 5.1656499
6.4242101 0.101642 5.16675
6.3762102 0.077583 5.1684699
6.3612599 0.065615401 5.1749001
6.3731098 0.080337301 5.1694398
6.35887 0.071713902 5.1721601
6.3701801 0.083831102 5.16957
6.3548002 0.073425502 5.1753402
6.3664999 0.089611202 5.16853
6.34972 0.082749002 5.1728101
6.36199 0.097095303 5.1669002
6.3583202 0.102332 5.1663198
6.3407302 0.092599802 5.1687698
6.34901 0.085393198 5.1712399
6.38905 0.0609621 5.17097
6.39114 0.0586114 5.1707501
6.3984699 0.050534099 5.1718402
6.69102 -0.29539001 5.1831002
6.42805 0.0482863 5.17102
6.4193902 0.041223701 5.1676898
6.8301401 0.16554099 5.2449899
6.4239898 0.031890798 5.1728601
6.6982799 -0.22300699 5.1823502
6.7968402 0.14706001 5.2301602
6.4784398 0.043816499 5.1745
6.72646 -0.201637 5.1949401
6.7810302 0.122084 5.2273202
6.46312 0.0137844 5.17135
6.4682398 0.0115575 5.1744699
6.8513598 0.11531 5.2284899
6.76156 -0.13582601 5.20227
6.51724 0.0129117 5.1800399
6.5149498 -0.00173408 5.1784801
6.76718 0.047796 5.2286601
6.5394502 -0.0126 5.18751
6.5510998 -0.0116907 5.1882
6.7940001 -0.0564542 5.2153802
6.7078199 -0.23895 5.19169
6.73698 -0.140651 5.1893501
6.9184599 0.094375998 5.26016
6.9309101 0.19945499 5.2648702
6.9277701 0.20198999 5.2648702
6.9537501 0.18902899 5.2536101
6.8709998 0.083971202 5.2340202
6.5982599 -0.30939901 5.1159201
6.6674399 -0.275114 5.1679802
6.68571 -0.27810001 5.1851702
6.6578698 -0.22483601 5.1079502
6.6616602 -0.197506 5.0993099
6.7048602 -0.212984 5.1793599
6.7154298 -0.191909 5.1831498
6.7199001 -0.185122 5.18853
6.2990999 0.143314 5.1808701
6.74159 -0.136259 5.18295
6.77597 -0.133607 5.2613101
6.8201098 -0.0035499199 5.21662
6.5959802 -0.048018798 5.2066002
6.6183901 -0.0328096 5.2013402
6.6000299 -0.0243535 5.2013001
6.56493 -0.027750099 5.1956401
6.81634 0.0357829 5.20752
6.5576401 -0.0077571901 5.1816201
6.5508099 -0.00091473601 5.1743999
6.9232302 0.094101503 5.2045102
6.8355799 0.084272802 5.2137899
6.9751301 0.103033 5.2639899
6.7787099 0.061498601 5.2292399
6.8486199 0.10565 5.2132201
6.4685001 0.0114502 5.17415
6.8083601 0.10759 5.2326298
6.4509401 0.017417099 5.1723499
6.7718101 0.10271 5.2244301
6.45193 0.018407499 5.1749401
6.4726701 0.0276611 5.1755199
6.4176102 0.0077269501 5.18606
6.8191199 0.133046 5.2349601
6.80058 0.12973 5.2342801
6.7804699 0.12622701 5.22751
6.53053 0.055666901 5.1876602
6.4092498 0.0137957 5.1841202
6.4800701 0.050018098 5.1767101
6.5376101 0.073784404 5.1942902
6.4880199 0.073531203 5.1773801
6.4073801 0.0468341 5.1691599
6.3891501 0.031618498 5.1806698
6.4291201 0.055283099 5.1736898
6.49014 0.082256101 5.1761098
6.4383798 0.064032599 5.1763
6.4890599 0.091118403 5.1726198
6.3973498 0.0507393 5.1721301
6.3807602 0.038895801 5.1818199
6.4446502 0.074166499 5.1783299
6.4523201 0.094537601 5.1763601
6.3624001 0.0488865 5.1799598
6.4098101 0.089216799 5.1697302
6.4167399 0.093891203 5.17101
6.3998299 0.086591698 5.1693401
6.3757901 0.072514601 5.1721702
6.3547301 0.071644001 5.1771598
6.3617702 0.095815599 5.1704998
6.3443799 0.0940805 5.1749401
6.3985901 0.129924 5.1826401
6.3856301 0.129526 5.1732798
6.3388 0.10221 5.1747899
6.3457799 0.120629 5.1689901
6.3326402 0.114358 5.1736302
6.5141301 0.198864 5.2283902
6.3183799 0.112819 5.1778002
6.5104499 0.201545 5.2280402
6.3266401 0.12903 5.17379
6.3291101 0.138081 5.17173
6.3136501 0.124442 5.1774998
6.5065899 0.221113 5.2301302
6.3197999 0.14531501 5.1732202
6.4910002 0.223289 5.22858
6.30761 0.13766301 5.1802402
6.3183699 0.15549099 5.1732101
6.5384002 0.228094 5.2274199
6.3540001 0.107215 5.1676698
6.3661499 0.086055703 5.17103
6.36868 0.083428897 5.1710901
6.37115 0.080582097 5.17137
6.3704 0.052295901 5.1777902
6.4322901 0.0541794 5.1742001
6.6806698 -0.25098801 5.1730299
6.7055001 -0.243681 5.1914401
6.49334 0.020302501 5.1771698
6.5205302 0.0067258901 5.1838799
6.4953799 -0.0098624304 5.1876101
6.5153799 -0.00093013898 5.1778898
6.36024 0.093480699 5.1698699
6.4978099 0.021863399 5.1789498
6.30058 0.18758599 5.1798
6.68716 -0.274147 5.1873598
6.6547999 -0.28764901 5.1770601
6.6955099 -0.25854599 5.1881299
6.6588998 -0.23520599 5.10779
6.7007098 -0.25086901 5.1894398
6.6942401 -0.23389401 5.1779799
6.6617999 -0.208657 5.10392
6.73206 -0.193905 5.1974401
6.7186599 -0.186441 5.1809902
6.80862 -0.0202318 5.2197199
6.5984602 -0.053393502 5.2002802
6.6307402 -0.0292105 5.19736
6.55092 -0.042097799 5.1872401
6.6152401 -0.019468499 5.19836
6.5880699 -0.0272409 5.2013102
6.8663201 0.041147601 5.2182498
6.60568 -0.0037054201 5.1831002
6.4991202 -0.026067199 5.1939502
6.8249002 0.056359701 5.20819
6.49156 -0.0069482801 5.1845102
6.8331399 0.0838544 5.21349
6.5195298 0.0119915 5.1777601
6.7512898 0.076543197 5.2181902
6.4444399 -0.0049840999 5.1886201
6.7602801 0.084625296 5.2205901
6.43156 0.00037075701 5.1872301
6.4732499 0.0264378 5.1775699
6.7740202 0.107503 5.2231998
6.8676701 0.150104 5.2178302
6.87152 0.160313 5.2347498
6.5377102 0.064677298 5.1901999
6.5356302 0.082099102 5.1944098
6.4008899 0.049558599 5.17241
6.4913001 0.095825903 5.1707702
6.3765101 0.045750301 5.1789398
6.39187 0.059615999 5.1708598
6.44912 0.0806382 5.1812401
6.3847499 0.068303101 5.1690602
6.37989 0.072291903 5.1693401
6.3636599 0.059411298 5.1774602
6.41362 0.092585303 5.1694198
6.3966899 0.085954897 5.1672201
6.5362902 0.18497001 5.1557498
6.3634801 0.0949836 5.1707101
6.34867 0.096345298 5.1722999
6.33917 0.091696903 5.1715498
6.3439498 0.097440697 5.1728802
6.3545699 0.10895 5.1678901
6.3957801 0.130307 5.1793799
6.3703399 0.12289 5.1697001
6.33002 0.123731 5.1730099
6.31639 0.116742 5.1788201
6.5236702 0.21836901 5.2329001
6.5398998 0.23885401 5.2305198
6.3505301 0.16993 5.1655898
6.5104299 0.236091 5.2226901
6.3059702 0.151627 5.17804
6.3211498 0.16705599 5.1725502
6.3169398 0.174189 5.1749802
6.2959399 0.152686 5.1820202
6.3157201 0.17556299 5.1746998
6.3146701 0.177499 5.1739202
6.33988 0.103121 5.17313
6.6829801 -0.248789 5.1728902
6.4497499 0.089692198 5.1785002
6.7249498 -0.20793401 5.1956801
6.4339199 0.055291802 5.1744199
6.4317198 0.052462298 5.1738701
6.4079499 0.0153823 5.1841402
6.8149099 0.030370699 5.2032299
6.7161498 -0.225961 5.1932101
6.57517 0.064199403 5.18046
6.7658701 -0.100435 5.2081599
6.4760499 0.032754999 5.17379
6.87464 0.165811 5.2387199
6.59905 -0.00084471301 5.17554
6.4244099 0.010232 5.1805902
6.4108801 0.045663301 5.1704202
6.7751899 0.095812701 5.2255201
6.3787799 0.125295 5.1722498
6.2968898 0.22023 5.1772799
6.2958999 0.226218 5.1770201
6.8509302 0.104666 5.2261801
6.6905298 -0.28149 5.1803699
6.6776299 -0.261769 5.1708698
6.4693699 0.0123807 5.17067
6.7031598 -0.24774501 5.1901398
6.7058201 -0.242053 5.18962
6.3132501 0.17995 5.1749802
6.3991098 0.052794401 5.1702499
6.7410302 -0.14115 5.1817498
6.5131798 0.227017 5.2270298
6.8215299 0.036593799 5.2163901
6.3348699 0.114964 5.1723499
6.3689699 0.120913 5.1710701
6.34551 0.097029202 5.1718702
6.3531599 0.0996636 5.1670899
6.34483 0.090895303 5.1674299
6.3708401 0.082017802 5.16958
6.4086599 0.042882901 5.1697698
6.4130001 0.097745299 5.1677399
6.5215302 0.0155235 5.1794701
6.6136098 -0.29980299 5.1161599
6.6577101 -0.28405601 5.1673398
6.4188399 0.0950367 5.16856
6.4056602 0.087947696 5.1666999
6.68437 -0.25118601 5.1717401
6.4549799 0.096574098 5.1757798
6.31497 0.177507 5.1740799
6.7090602 -0.210219 5.17731
6.7336202 -0.188728 5.1972799
6.3156199 0.165168 5.1737099
6.4119401 0.0211605 5.1780801
6.4794998 -0.00556341 5.178
6.7435198 -0.138671 5.1842999
6.7623501 -0.13649701 5.2012401
6.7475901 -0.121249 5.18959
6.4331298 0.052701101 5.17273
6.4435601 0.078090698 5.1736999
6.4914298 0.0962568 5.1714702
6.3210101 0.14962199 5.17307
6.3304601 0.123183 5.1725402
6.3453698 0.16664401 5.1679201
6.5079398 0.224702 5.22575
6.30655 0.130971 5.17734
6.3241 0.063304096 5.0887399
6.5237002 0.212817 5.2287202
6.4986 0.022696599 5.1775398
6.3541899 0.079108998 5.17243
6.7533598 -0.106621 5.1851802
6.7839699 0.115089 5.22786
6.59799 -0.311313 5.11555
6.6867099 -0.27883101 5.1854801
6.7175598 -0.223748 5.1950302
6.7203698 -0.185058 5.1798301
6.7504802 -0.115781 5.1905098
6.75985 -0.095715702 5.1902099
6.4672899 0.015853999 5.1683998
6.7288098 0.061796401 5.1992002
6.4430799 0.0148781 5.1704898
6.7613401 0.070735298 5.2185502
6.4437499 0.022379 5.1714702
6.8076701 0.085695803 5.2328801
6.8014102 0.092573904 5.2382798
6.9299402 0.14868701 5.2395301
6.9446101 0.184994 5.2502298
6.3874798 0.0653155 5.1682601
6.3817501 0.072085001 5.16646
6.4580102 0.0950009 5.1792598
6.3846698 0.077625401 5.1673398
6.35956 0.077833697 5.16994
6.5164299 0.171956 5.1585898
6.3404298 0.106942 5.1714301
6.3537202 0.119152 5.1683798
6.3327799 0.121205 5.1712799
6.3204498 0.151048 5.1704702
6.5142999 0.227484 5.2289901
6.4956498 0.231534 5.22294
6.30757 0.21272799 5.17731
6.6750798 -0.264292 5.1703501
6.6809101 -0.25357899 5.1694398
6.5188899 0.201416 5.22545
6.7148399 -0.19979499 5.1793299
6.7273202 -0.200735 5.1954999
6.5235801 0.25089899 5.22926
6.31534 0.17721 5.1725898
6.7048802 -0.24501 5.1901698
6.3145199 0.071738303 5.0858598
6.7473102 0.060078301 5.2255702
6.7909198 -0.075107299 5.2213302
6.7895498 -0.016773 5.2101798
6.7913799 -0.0140292 5.2104402
6.7890701 -0.0141829 5.2084498
6.8015499 0.0096698301 5.2115302
6.7951798 0.0551611 5.2165399
6.7623601 0.041779801 5.2290702
6.7747202 0.051532902 5.2297301
6.7790699 0.059672099 5.2320099
6.79919 0.089332603 5.2357998
6.7630701 0.076714702 5.2256899
6.7673602 0.082850099 5.22756
6.7465801 -0.1675 5.2000198
6.783 0.124985 5.23208
6.79846 0.1481 5.2340798
6.8275099 0.015078 5.2235599
6.8115602 0.0293433 5.2131
6.8036499 -0.039904699 5.2174602
6.9301 0.098889202 5.2044501
6.8024101 -0.00021508901 5.2229099
6.8080902 0.023652099 5.2118702
6.84447 0.096453004 5.21838
6.8198199 0.051384099 5.2150402
6.8329401 0.0762932 5.2169299
6.8068199 0.104755 5.2378101
6.8316002 0.177303 5.2462301
6.8615599 0.140072 5.2249498
6.8781099 0.090509102 5.2354298
6.85432 0.039715901 5.2318702
6.8755202 0.086781003 5.2350702
6.8646402 0.094793499 5.2281699
6.8549399 0.118778 5.2220402
6.8909302 0.124561 5.2426801
6.8867202 0.139213 5.2339101
6.87568 0.17395499 5.2294898
6.9430299 0.14027099 5.24438
6.9798799 0.0715141 5.2299299
6.3483601 0.124165 5.1668901
6.7330298 -0.18662 5.1973801
6.49336 -0.0028338199 5.18047
6.40554 0.092282899 5.1659999
6.7220802 -0.205926 5.1970201
6.3306899 0.124894 5.1721201
6.6504002 -0.28674099 5.17837
6.7814898 0.113481 5.2273202
6.81954 0.120633 5.2374802
6.8361602 0.18110301 5.2432699
6.6589899 -0.23121899 5.1043801
6.7147698 -0.19334599 5.1777
6.7416902 -0.122886 5.1902199
6.7810302 0.110202 5.2266202
6.49015 0.0091339704 5.17028
6.4658999 0.017021401 5.1676102
6.4176502 0.0086244997 5.17875
6.4210501 0.060306601 5.0742602
6.4069099 0.031891499 5.1729002
6.7629399 0.081194803 5.2210598
6.3513899 0.122907 5.0770102
6.4342999 0.0281772 5.1707201
6.7104502 -0.22942799 5.1929498
6.6636801 -0.208158 5.1009898
6.5314798 0.23122901 5.2286401
6.7146001 -0.218959 5.1964898
6.5830498 0.023245901 5.17204
6.3675799 0.0838558 5.1696701
6.4098201 0.0911671 5.1666698
6.8201599 0.034391198 5.2298899
6.69876 -0.24796 5.1921101
6.68928 -0.266864 5.1905398
6.6606102 -0.207858 5.10217
6.40418 0.047290999 5.1696
6.6766801 -0.25832701 5.1711898
6.7048702 -0.235866 5.1931
6.7193699 -0.184205 5.1813102
6.7548099 -0.099972703 5.1872602
6.77637 -0.0240486 5.2026801
6.6895499 0.0125576 5.2091999
6.4239402 0.048129302 5.0798602
6.3987198 0.069091402 5.0798302
6.8462601 0.11432 5.2305198
6.3615398 0.112641 5.0780602
6.5905199 0.208599 5.2443299
6.4609499 0.102335 5.1827998
6.3833299 0.068643197 5.1680698
6.4491 0.0186674 5.1725602
6.4260201 0.030161999 5.1719899
6.4106202 0.0303453 5.1710701
6.6859698 -0.24094699 5.1898799
6.7069898 -0.212935 5.18471
6.8213501 0.0047418098 5.22261
6.4888501 0.078340501 5.16785
6.5773702 0.074235603 5.16222
6.50349 0.0234029 5.1704798
6.5957499 -0.30953199 5.1165299
6.4946599 0.027034 5.0770202
6.52948 -0.031667899 5.1971502
6.5530701 -0.00347465 5.17416
6.4398999 0.038181901 5.0833201
6.38273 0.080398701 5.0816102
6.4758401 0.041325301 5.1717801
6.73067 0.063740604 5.1984401
6.3664699 0.102401 5.0767598
6.4924202 0.0921271 5.16748
6.3673 0.0798283 5.1707301
6.4193802 0.033360101 5.1727099
6.3162999 0.073848501 5.0826402
6.42593 0.027269401 5.1727099
6.43502 0.0230667 5.17383
6.4491701 0.0129928 5.1740198
6.5704298 -0.0016826499 5.1782398
6.5931501 0.0026583299 5.17384
6.73559 0.064263403 5.2058902
6.3871198 0.075407103 5.0815201
6.44314 0.0123387 5.17698
6.4597502 0.031552501 5.0851998
6.4528399 0.032267999 5.0830698
6.4900498 -0.0155238 5.18679
6.4084101 0.0618513 5.0824399
6.4924302 0.0116565 5.1753502
6.3789201 0.059337199 5.17307
6.48734 0.082814902 5.1735401
6.4770098 -0.0045368401 5.18117
6.4286299 0.047320802 5.0844002
6.5240502 -0.0250559 5.1887698
6.2796202 0.208382 5.14112
6.3231502 0.142959 5.16997
6.4286199 0.022278201 5.1760702
6.3933902 0.068372697 5.0817199
6.4780402 -0.0051128301 5.1822701
6.3639698 0.102627 5.0785198
6.39816 0.046737801 5.17314
6.3534899 0.108222 5.0794201
6.3405099 0.102779 5.1710901
6.3378701 0.107341 5.1703601
6.5394602 0.170569 5.16399
6.3263202 0.13181999 5.1704502
6.5805898 -0.028971801 5.1848302
6.5422001 -0.0309544 5.18819
6.5728402 -0.00054491602 5.1710501
6.5111799 -0.0024304199 5.17731
6.31884 0.15131199 5.1715102
6.5217099 0.0181942 5.08145
6.4768 0.0278925 5.0826101
6.4513402 0.035634201 5.0837402
6.4268298 0.0517991 5.0827899
6.4144402 0.050743099 5.0831199
6.4927301 -0.0054028798 5.1797299
6.46281 0.0099301403 5.17553
6.3678098 0.10108 5.0820098
6.33746 0.099913299 5.17243
6.2901201 0.139943 5.1367302
6.3309398 0.113437 5.1726298
6.3150201 0.16101401 5.1719899
6.2773399 0.221425 5.1385899
6.39182 0.069184303 5.0819998
6.27984 0.19294301 5.1389599
6.3825898 0.080735199 5.0817199
6.5281901 0.18187501 5.1618199
6.3336201 0.107762 5.17239
6.3424201 0.093036696 5.1738601
6.4253001 0.043321699 5.1685901
6.4543099 0.033764601 5.0831099
6.3900499 0.0715409 5.0818901
6.3227 0.065112203 5.0830698
6.28265 0.21064299 5.14153
6.3129101 0.168998 5.1726999
6.4899502 -0.0051518301 5.1799302
6.4586 0.0060366001 5.1782598
6.4920101 0.0152167 5.1747398
6.3235102 0.120804 5.1740799
6.31112 0.138366 5.1765099
6.2788401 0.203069 5.1378899
6.4728098 0.023293501 5.0862398
6.43996 0.0415534 5.0818801
6.42729 0.050197098 5.0820699
6.4011898 0.064867698 5.08248
6.32726 0.062813699 5.0826402
6.3694401 0.096942902 5.0808301
6.3663301 0.099802598 5.0799799
6.4491401 0.037305702 5.0818
6.42203 0.0568683 5.08218
6.41751 0.058938701 5.0822301
6.3397198 0.094554901 5.1743598
6.3172498 0.101871 5.1350098
6.3887501 0.074710101 5.0809202
6.3343801 0.063056298 5.08285
6.4551702 0.0346158 5.0825901
6.7957401 -0.054899301 5.2153001
6.7091398 -0.23874401 5.1916599
6.6799998 -0.25492999 5.1728401
6.6659698 -0.222247 5.1082602
6.95013 0.0385129 5.2016501
6.8116798 -0.0140758 5.2182498
6.7708902 0.027831599 5.22225
6.5482702 -0.0068142102 5.1805401
6.5391502 -0.0074396301 5.18121
6.4988899 -0.0105123 5.1890802
6.8345499 0.082442798 5.2133198
6.5785899 0.075321302 5.18396
6.7363801 -0.184651 5.1975999
6.7219701 -0.213522 5.1946802
6.7403798 -0.173481 5.1974602
6.8131399 0.0239869 5.2055602
6.4198399 0.041309599 5.1703701
6.49894 0.0192343 5.17946
6.6886802 -0.27226499 5.18681
6.73773 -0.147093 5.1863298
6.75527 -0.0983603 5.1890502
6.5265498 -0.0144472 5.18717
6.52387 -0.0100762 5.1860099
6.5188799 -0.00043085401 5.1785798
6.5220299 0.0119432 5.1819701
6.5781898 0.071008503 5.1827898
6.4877901 0.070571199 5.1751099
6.3818498 0.073954903 5.1680102
6.4263802 0.101572 5.1691499
6.34657 0.123283 5.1670299
6.7067299 -0.240693 5.1897898
6.5192399 0.0074943202 5.1767602
6.4791999 0.054897901 5.1705399
6.5708599 0.03517 5.1812501
6.8530002 0.110884 5.2136998
6.5773602 0.059948601 5.1841602
6.4796901 0.045660101 5.17488
6.57307 0.045482501 5.1814899
6.3494601 0.118959 5.1677999
6.4428401 0.0706781 5.1771498
6.7118301 -0.20274401 5.1788201
6.49577 0.0232953 5.1747999
6.3678999 0.121866 5.1668501
6.5117698 0.197448 5.2272
6.49649 0.00801594 5.1751299
6.7807698 0.119898 5.22858
6.4010501 0.0844924 5.1668401
6.4098001 0.042815201 5.17061
6.47401 0.031526498 5.1735601
6.3601999 0.100925 5.1686101
6.3618002 0.095408998 5.1697202
6.5314002 0.061028302 5.18859
6.3734198 0.080744497 5.1705499
6.3649001 0.0913454 5.1700602
6.3762398 0.074162401 5.17132
6.4719701 0.0098447604 5.1731801
6.3689299 0.0842866 5.1700902
6.51858 0.20552699 5.2283502
6.4758701 0.0097264498 5.17204
6.4383898 0.025590399 5.1719599
6.4298201 0.030335199 5.1719599
6.4060702 0.045602702 5.1698999
6.3530302 0.109092 5.1669698
6.3849301 0.040445101 5.17729
6.3662601 0.054843798 5.1803098
6.3855801 0.066072904 5.1708598
6.4471598 0.020659 5.17203
6.4235201 0.036644898 5.1707101
6.3949499 0.0557332 5.17032
6.45328 0.0185463 5.1723499
6.3621602 0.065378703 5.1756301
6.4114199 0.0449684 5.1712899
6.8492999 0.112045 5.2305799
6.4253001 0.0319378 5.1728301
6.7021198 -0.221357 5.17905
6.8333602 0.16213401 5.24299
6.7671299 0.0459112 5.2247701
6.3995399 0.051105902 5.1716499
6.3576698 0.069003403 5.1771498
6.8407998 0.197056 5.2437401
6.8175402 0.119529 5.2311702
6.3963299 0.0292315 5.1791
6.6531 -0.029315099 5.20713
6.8092098 0.096690498 5.2231498
6.3926401 0.058526501 5.1702499
6.5644398 -0.0467152 5.1972499
6.33887 0.108615 5.17206
6.6410999 -0.0340406 5.20608
6.6152501 -0.0161642 5.2031102
6.6810999 -0.018962501 5.2097602
6.45365 -0.00301963 5.1807899
6.6970601 -0.0112491 5.2124901
6.5948801 -0.020361001 5.2012601
6.3435402 0.100749 5.1721601
6.32652 0.133817 5.1721902
6.5311999 -0.0311566 5.1873498
6.5018101 -0.0279372 5.1873598
6.57972 -0.0238814 5.1921101
6.33707 0.112449 5.1724501
6.3180699 0.104762 5.1770201
6.3160901 0.123866 5.1750798
6.3714399 0.0437745 5.1767998
6.3621001 0.055957299 5.1761599
6.3105898 0.077200502 5.0832
6.4671998 0.024870001 5.08461
6.4095101 0.059787702 5.0824699
6.33636 0.058797799 5.08218
6.3987398 0.071473598 5.0816102
6.3962002 0.075649999 5.0817499
6.3823099 0.079446398 5.0802398
6.3611999 0.099063098 5.0801001
6.3670902 0.10166 5.0797701
6.3506799 0.114251 5.0782299
6.32023 0.080674201 5.0792198
6.3870702 0.076804303 5.0806799
6.3882198 0.074643999 5.0806899
6.34519 0.125484 5.07728
6.3497901 0.11588 5.0778799
6.3339 0.061457898 5.08213
6.40207 0.063422099 5.0811901
6.3895998 0.072669499 5.0808301
6.3825798 0.081508704 5.0806599
6.32268 0.079075597 5.0795598
6.3915801 0.131192 5.17415
6.6613598 -0.233374 5.1066699
6.75173 0.063496701 5.2185302
6.6632199 -0.20892601 5.1034098
6.7456002 -0.137173 5.1855302
6.8312201 0.026302399 5.2234702
6.86552 0.16264699 5.2260098
6.7249098 -0.20796899 5.1953402
6.6791201 -0.25862199 5.17138
6.3484998 0.122673 5.1676002
6.73174 -0.196551 5.1974101
6.74965 -0.112382 5.18927
6.52068 -0.0032997499 5.1778402
6.3692098 0.127799 5.1672201
6.3675499 0.089044102 5.1694598
6.6873698 -0.28189999 5.18715
6.4336901 0.060527001 5.1710401
6.4266 0.033125602 5.1708498
6.3605599 0.098900698 5.1682
6.6943302 -0.263513 5.19067
6.3282099 0.12864099 5.1721902
6.4121299 0.090643004 5.1673498
6.3729 0.081121899 5.1702099
6.3846502 0.070320196 5.1673799
6.4752202 0.0063708201 5.1743302
6.70895 -0.209262 5.1772399
6.3701 0.081778698 5.1672301
6.3970699 0.0556091 5.1711202
6.3969102 0.085308902 5.1664701
6.44732 0.0226718 5.17342
6.81318 0.0877406 5.23106
6.6947498 -0.235039 5.17693
6.8432899 0.17685799 5.2436199
6.6813402 -0.25643501 5.1738601
6.4443698 0.021834301 5.17347
6.8232698 0.114097 5.2356
6.62078 -0.0143452 5.1984401
6.49792 0.22040901 5.2224798
6.50669 0.221526 5.2276902
6.7776799 0.125782 5.2286601
6.3186998 0.168051 5.1757498
6.3168201 0.163197 5.1744499
6.5328598 0.24092001 5.2295699
6.5135899 0.247481 5.22997
6.3161802 0.176982 5.1745501
6.2923899 0.18460999 5.1788101
6.3396802 0.107674 5.1733298
6.3268399 0.13697 5.1726999
6.48768 -0.0164013 5.17941
6.3270998 0.061885599 5.0799398
6.3568201 0.104138 5.0788598
6.3223701 0.0835841 5.0796199
6.8488898 0.096779101 5.25106
6.7571402 0.077811301 5.2183199
6.6898899 -0.26895699 5.1886802
6.6631098 -0.21932299 5.1030698
6.5190101 0.0038407 5.1705298
6.4036999 0.0479539 5.16962
6.47613 0.122715 5.1851101
6.6638899 -0.195356 5.1017199
6.4930701 0.0100798 5.1715398
6.7033401 -0.245891 5.1910901
6.4681902 0.019663 5.1702099
6.3764901 0.076113701 5.17029
6.3940101 0.058410998 5.1694598
6.4225502 0.042875499 5.1680198
6.7662101 0.092712402 5.2209001
6.4321599 0.0300947 5.1718702
6.4377999 0.062179599 5.17383
6.3733301 0.077330902 5.171
6.8355298 0.180392 5.2445102
6.46909 0.0139529 5.17134
6.6502099 -0.28936899 5.1806698
6.6584001 -0.239546 5.1044898
6.4556699 0.091038801 5.1799998
6.9004698 0.157869 5.2321301
6.7107201 -0.204386 5.17974
6.6810899 0.00760167 5.2091899
6.3502102 0.098399699 5.1701498
6.51934 0.20239501 5.2258101
6.5131798 0.201085 5.2238898
6.3192101 0.158554 5.1725101
6.4918699 -0.026071399 5.1869302
6.4579301 0.095899098 5.1824598
6.4074998 0.016646501 5.1784801
6.4800401 -0.0063585299 5.1795402
6.30405 0.147861 5.1747198
6.3391299 0.107847 5.17312
6.3369498 0.055165999 5.0818501
6.3250599 0.072117999 5.0789399
6.4150801 0.035881702 5.17344
6.45998 0.0317307 5.0848098
6.4483299 0.035067499 5.0834098
6.42661 0.046254601 5.08319
6.42276 0.048469 5.0831599
6.4168901 0.057180502 5.0833602
6.4042702 0.064474098 5.08248
6.4485102 0.036851302 5.0839601
6.33038 0.065719098 5.0817299
6.3839202 0.080733702 5.08144
6.3754601 0.081232697 5.0806298
6.37778 0.085998297 5.0804801
6.3594799 0.106953 5.0794201
6.35955 0.116831 5.0811
6.3446999 0.124107 5.0778198
6.34728 0.117706 5.0796399
6.3913999 0.071574301 5.08178
6.39535 0.067809902 5.0810599
6.33814 0.0542465 5.0826502
6.3598299 0.087908201 5.1723199
6.6894102 -0.25622401 5.1928
6.7006001 -0.21469299 5.1800499
6.7192602 -0.197285 5.19982
6.7230501 -0.16700201 5.1990499
6.8383899 0.10319 5.2276301
