# .PCD v0.7 - Point Cloud Data file format
VERSION 0.7
FIELDS x y z
SIZE 4 4 4
TYPE F F F
COUNT 1 1 1
WIDTH 67
HEIGHT 1
VIEWPOINT 0 0 0 1 0 0 0
POINTS 67
DATA ascii
3.7219999 -1.24569 4.1146202
3.58744 -1.2762901 4.14148
3.6050401 -1.2194901 4.0781598
3.74844 -1.24907 4.0475798
3.5717599 -1.26448 4.1335301
3.7034299 -1.24257 4.11026
3.72996 -0.96258301 4.7108698
3.7092099 -1.26068 4.0462599
3.7386301 -1.248 4.0492802
3.5827501 -1.26121 4.1131701
3.71595 -1.2753299 4.0380301
3.6804399 -1.2531101 4.0864
3.6481299 -1.24265 4.1118398
3.61921 -1.2297 4.0451999
3.70017 -1.23393 4.0466599
3.6779399 -1.25658 4.0961399
3.6788099 -1.25761 4.0666099
3.66171 -1.22742 4.09512
3.6560199 -1.24677 4.1042199
3.6772599 -1.23914 4.0956998
3.7004099 -1.25607 4.0808101
3.67676 -1.24841 4.0685601
3.6872699 -1.26929 4.0518098
3.67187 -1.2541 4.0394201
3.6768 -1.2527601 4.1032
3.6602499 -1.24391 4.0768499
3.67507 -1.25664 4.0567198
3.6848199 -1.27213 4.1110501
3.6635101 -1.24933 4.1085501
3.6486599 -1.2422301 4.1078901
3.6682401 -1.25783 4.1034999
3.6642499 -1.24432 4.0957799
3.7701299 -0.95881301 4.70926
3.7925301 -0.96298301 4.7121801
3.73281 -0.96143103 4.7188702
3.8086901 -0.98153198 4.73277
3.68275 -1.27087 4.0370498
3.8189399 -0.92277199 4.8185501
3.6419201 -1.23193 4.0548801
3.6303 -1.2211 4.0952101
3.6598001 -1.26559 4.1217899
3.86215 -0.932329 4.8246598
3.7052701 -1.26116 4.0949402
3.6687801 -1.24918 4.1019301
3.68679 -1.2503099 4.10286
3.80744 -0.92991298 4.84481
3.83074 -0.92310899 4.82726
3.8445201 -0.92445201 4.82584
3.85356 -0.92525202 4.82587
3.9445701 -0.92045999 4.7844
3.9523599 -0.91864401 4.7790098
3.78987 -0.96729702 4.71523
3.9438801 -0.93320799 4.7910099
3.8264101 -0.92741799 4.8281398
3.80913 -0.92425799 4.8306298
3.8673799 -0.91683501 4.7910199
3.8557 -0.91700602 4.7919898
3.83005 -0.91371399 4.7931199
3.8115499 -0.92282403 4.81881
3.8519599 -0.93064302 4.8217902
3.7716701 -0.923199 4.8344998
3.7834799 -0.922773 4.8316998
3.79458 -0.92350501 4.83041
3.82849 -0.92773598 4.8322201
3.85342 -0.92994702 4.8300099
3.8424301 -0.928774 4.83075
3.89434 -0.92091602 4.7923298
