# .PCD v0.7 - Point Cloud Data file format
VERSION 0.7
FIELDS x y z
SIZE 4 4 4
TYPE F F F
COUNT 1 1 1
WIDTH 302
HEIGHT 1
VIEWPOINT 0 0 0 1 0 0 0
POINTS 302
DATA ascii
-0.64240301 -1.32929 2.0817499
-0.81350797 -1.3025399 2.0692301
-0.51978302 -1.32157 2.04565
-0.78492999 -1.29316 2.0520101
-1.01895 -1.23982 2.00333
-0.617679 -1.21229 1.98423
-0.66962898 -1.21385 1.99151
-0.49392101 -1.23895 2.0029099
-0.34205699 -1.24219 1.98124
-0.918154 -1.26554 2.0339899
-0.74405599 -1.35495 2.1162
-0.35329899 -1.3346601 2.0374801
-0.47703901 -1.2879601 2.0683899
-0.61346102 -1.25257 2.0394101
-0.466003 -1.3493201 2.0729899
-0.73935002 -1.40683 2.2063401
-0.43836099 -1.37436 2.10706
-0.84926403 -1.27335 2.1064501
-0.78640503 -1.30481 2.13465
-0.58508301 -1.28572 2.0837801
-0.79751903 -1.27259 2.1022
-0.37046799 -1.34659 2.05848
-0.91197997 -1.2641799 2.11163
-1.09565 -1.21233 2.06604
-0.53875899 -1.38568 2.1409299
-0.82826 -1.24664 1.97548
-1.12981 -1.14923 2.0359199
-1.00442 -1.2521501 2.1069
-0.95699501 -1.27887 2.1408501
-0.73909903 -1.3955801 2.1886599
-0.86327797 -1.2827801 2.1294899
-0.41857401 -1.36184 2.08392
-0.49488699 -1.30984 2.10624
-0.435853 -1.2944601 2.07146
-0.199586 -1.3045501 2.0522201
-1.0580601 -1.2471 2.11303
-0.968759 -1.27935 2.1429701
-0.78348702 -1.35246 2.13131
-0.73728597 -1.34799 2.1203499
-0.704436 -1.38947 2.17804
-0.342632 -1.35856 2.0652001
-0.82271802 -1.2630399 2.08937
-0.430801 -1.35462 2.07547
-0.97582102 -1.27931 2.14696
-0.75022101 -1.27268 2.09234
-0.876028 -1.27983 2.1224201
-0.76832598 -1.30241 2.1505899
-0.74739897 -1.31828 2.1714799
-0.42806801 -1.33858 2.15657
-0.36295801 -1.32925 2.1438
-0.89877498 -1.2489901 2.08728
-0.868752 -1.24114 2.0684299
-0.815503 -1.2285399 2.0483301
-1.08245 -1.2249 2.08585
-0.79592001 -1.27135 2.1024301
-0.74339098 -1.39475 2.1894
-0.72844201 -1.40175 2.19993
-0.57166702 -1.2734801 2.06001
-0.36503401 -1.29892 1.97611
-0.43886101 -1.29001 1.97794
-0.80369002 -1.2447 2.0524399
-0.96770799 -1.3195699 2.1136601
-0.97791499 -1.27466 2.1393099
-0.47218201 -1.2511801 2.0094299
-0.29454899 -1.26245 2.00366
-0.621301 -1.2290601 1.99825
-0.42691401 -1.24935 2.00019
-1.01539 -1.25133 2.1185501
-0.66492099 -1.35918 2.12218
-0.53220201 -1.35479 2.0762899
-0.54479998 -1.27335 2.06024
-0.51566899 -1.30937 2.1140201
-1.02865 -1.31393 2.4847
-0.175047 -1.3177299 2.08741
-0.430792 -1.27065 2.0181301
-0.77138299 -1.2641701 2.0873899
-0.76678598 -1.26026 1.98553
-0.91424203 -1.30441 2.17872
-0.72454 -1.2579 2.0696101
-0.638506 -1.26912 2.07127
-0.33421099 -1.32488 2.01685
-1.08391 -1.28977 2.44906
-0.45880899 -1.28819 2.07039
-0.89977401 -1.3520499 2.1484201
-0.78524703 -1.2924401 2.12831
-0.482804 -1.35347 2.0748401
-0.64590502 -1.32732 2.1710899
-0.48037899 -1.34392 2.1666701
-0.77041698 -1.29733 2.1368501
-1.09584 -1.28591 2.1891899
-0.79668802 -1.37693 2.17137
-0.98420203 -1.24872 2.09677
-1.12483 -1.57216 2.35884
-0.884022 -1.2508399 2.08007
-0.94467098 -1.25752 2.10444
-0.44184199 -1.30344 1.9924999
-0.351403 -1.24508 1.9787
-0.303738 -1.2626801 1.9994
-0.88068002 -1.28965 2.0597899
-0.82168901 -1.2710201 2.0195401
-0.73250502 -1.23204 1.94444
-0.83743203 -1.25037 2.07866
-0.65931201 -1.23001 2.0106699
-0.58029997 -1.28137 2.0808699
-0.51387602 -1.27528 2.0538599
-0.32723299 -1.2774 2.0297
-0.75819701 -1.2555799 2.0745001
-0.50022501 -1.27511 1.96672
-0.33937299 -1.31789 2.0072899
-0.43111101 -1.26213 2.0265901
-0.68997699 -1.2206399 1.99858
-0.65343302 -1.27495 2.0855899
-0.480573 -1.2674 2.04282
-0.42017201 -1.26489 2.0193501
-0.47162801 -1.2666 2.0408399
-0.58175099 -1.2246 1.99246
-0.42715299 -1.26475 2.0316
-0.687352 -1.26625 2.0820601
-0.576621 -1.24887 2.0309501
-0.69159001 -1.24173 2.036
-0.71969903 -1.2823 2.11303
-0.492946 -1.2721601 2.05158
-0.44451901 -1.28346 1.97089
-0.40526101 -1.3108799 2.00313
-0.58408898 -1.32812 2.1617601
-0.46530601 -1.2428 2.00002
-0.53034699 -1.2447 2.0137
-0.65368003 -1.26713 2.0723901
-0.69310302 -1.26375 2.07338
-0.57756698 -1.3326401 2.15434
-0.29403701 -1.3607399 2.1496501
-0.58363599 -1.31973 2.14009
-1.01275 -1.32399 2.49613
-0.88467997 -1.31915 2.4682
-1.0496 -1.23791 2.36426
-0.98837501 -1.25362 2.3640499
-0.79056197 -1.2198499 2.02423
-1.0283 -1.27894 2.41326
-0.97065401 -1.29997 2.4416399
-0.67720503 -1.24349 2.0347099
-0.64921403 -1.23586 2.0241399
-1.02141 -1.24125 2.0157599
-0.98296499 -1.25968 2.0290699
-1.07375 -1.25463 2.13873
-1.00834 -1.2396899 2.09935
-0.70907497 -1.24734 1.9701
-0.92641097 -1.22135 2.0532501
-0.67862999 -1.24542 1.95848
-0.85708898 -1.21271 2.02578
-0.80974197 -1.22385 2.0355
-0.77002001 -1.22542 2.03056
-0.57168198 -1.24976 2.03263
-1.0106699 -1.27429 2.4005899
-1.05718 -1.26115 2.3875999
-1.05906 -1.24151 2.01861
-1.0326999 -1.26992 2.1486199
-0.97943902 -1.30808 2.46328
-1.0501699 -1.20952 2.0541799
-0.95968199 -1.23724 2.06582
-1.02121 -1.2319601 2.0750101
-0.96504498 -1.2308 2.0706799
-0.74077499 -1.25967 2.0727501
-0.924429 -1.30663 2.09232
-0.57584202 -1.33531 2.06687
-0.59895098 -1.33267 2.0654199
-0.89992499 -1.24086 2.0660999
-0.76280701 -1.2291501 2.0232201
-0.49982601 -1.33331 2.0546701
-0.722853 -1.27637 2.0959899
-0.33369699 -1.26176 2.0014601
-0.62835902 -1.22478 1.9928499
-0.52063298 -1.23316 1.98633
-0.30627701 -1.3552001 2.15049
-0.41485199 -1.3146501 2.1015799
-0.38441399 -1.34993 2.1753199
-1.03969 -1.20113 2.0406301
-1.0506999 -1.3055201 2.4637499
-0.33259001 -1.37315 2.09128
-1.17611 -1.57184 2.36496
-1.16006 -1.60243 2.3994901
-0.858922 -1.24801 1.98642
-0.71883798 -1.33482 2.07638
-0.66401702 -1.3298301 2.0787201
-0.563393 -1.27812 1.98408
-0.552423 -1.3098201 2.02918
-1.0486799 -1.21908 2.30951
-0.367737 -1.25956 2.0171299
-0.606893 -1.32199 2.16029
-0.76141399 -1.30553 2.1652501
-0.79369998 -1.30065 2.15802
-0.80783701 -1.31091 2.1793799
-1.03601 -1.29015 2.18433
-1.1492701 -1.60458 2.3796699
-1.08118 -1.31198 2.12133
-0.98265398 -1.30765 2.09903
-0.92215103 -1.34023 2.1352
-0.85410303 -1.34349 2.13557
-0.79193997 -1.34056 2.10993
-0.672194 -1.32735 2.18064
-0.49555701 -1.29383 2.0971799
-1.0322599 -1.31315 2.1161399
-0.83840299 -1.33065 2.1092701
-0.73848999 -1.33068 2.0829599
-0.56464303 -1.33421 2.0708899
-0.536771 -1.33047 2.0578401
-0.432933 -1.36365 2.0910699
-1.0795799 -1.27581 2.17466
-0.92912698 -1.2859 2.1609099
-0.83693898 -1.2974 2.16517
-0.73983699 -1.30115 2.1454999
-0.81211603 -1.31265 2.1937399
-0.71633399 -1.29266 2.13591
-0.46515799 -1.27483 2.0610299
-1.0189101 -1.24914 2.36075
-0.35354501 -1.31891 2.1150601
-0.92505097 -1.29071 2.1675301
-0.36466801 -1.35676 2.0624499
-0.92436701 -1.326 2.1157801
-0.91126102 -1.31903 2.1019599
-0.64386898 -1.32318 2.06547
-0.78254598 -1.3286099 2.09149
-1.04477 -1.23783 2.3464501
-0.67474198 -1.33167 2.0807099
-0.61852002 -1.33372 2.07549
-0.58961499 -1.3406 2.08147
-0.39833 -1.34992 2.06722
-1.0688601 -1.27809 2.06759
-0.97033203 -1.3128999 2.1052001
-0.94816601 -1.3112299 2.0994501
-0.88907701 -1.34012 2.13399
-0.83704501 -1.33078 2.11239
-0.62985402 -1.2732 2.08864
-0.51461399 -1.3133 2.13627
-1.01869 -1.27946 2.1644199
-0.961263 -1.29293 2.1779001
-0.759826 -1.2714601 2.1244199
-1.01024 -1.24887 2.36093
-1.06821 -1.24563 2.3757501
-1.17679 -1.58252 2.3596301
-0.736516 -1.33218 2.09974
-0.406158 -1.32329 2.12624
-0.35585001 -1.3295 2.12888
-0.674972 -1.26958 2.08933
-1.04399 -1.2595299 2.13592
-0.87648499 -1.2965 2.17151
-0.80118197 -1.29221 2.15379
-1.03766 -1.2794 2.1770599
-0.85460901 -1.29655 2.17872
-1.05846 -1.24417 2.35851
-0.53877598 -1.33848 2.0708599
-0.70979297 -1.22754 2.02386
-0.76962298 -1.32493 2.17047
-0.98721898 -1.2575001 2.1140399
-1.03159 -1.23373 2.08776
-0.46298799 -1.3156199 2.1147001
-0.621032 -1.3214999 2.1511199
-1.15703 -1.60496 2.4034901
-0.76802099 -1.34147 2.1115
-0.79541701 -1.34157 2.1200299
-0.855398 -1.3423001 2.1292801
-1.1831501 -1.58198 2.3819001
-0.50179398 -1.39221 2.1458001
-0.60600299 -1.36701 2.1230299
-0.67536801 -1.36156 2.12708
-0.65872401 -1.3554699 2.1175301
-0.76671702 -1.3563401 2.1322401
-0.80642402 -1.34979 2.1333101
-1.05539 -1.31782 2.12236
-0.79331201 -1.29432 2.1522501
-0.918437 -1.2880599 2.1658499
-0.86037701 -1.27342 2.1405499
-1.00117 -1.27953 2.1643901
-0.93906897 -1.31336 2.09354
-1.14991 -1.60704 2.3891201
-0.93286097 -1.27716 2.14872
-0.62878698 -1.36634 2.1215301
-1.19511 -1.60137 2.3898399
-1.15696 -1.60773 2.3931999
-1.2029999 -1.6001101 2.3901999
-1.16617 -1.6159 2.39533
-1.16803 -1.59832 2.3636899
-1.1682 -1.61531 2.3987501
-1.1590101 -1.60235 2.3965499
-1.16848 -1.6102 2.40797
-1.19725 -1.59304 2.3933599
-1.16708 -1.6186 2.40168
-1.1630501 -1.61116 2.3984699
-1.1898201 -1.59793 2.3998699
-1.1671 -1.62035 2.40275
-1.16397 -1.62369 2.4026699
-1.16668 -1.62542 2.4093599
-1.16574 -1.62102 2.4029701
-1.1440099 -1.5815001 2.38183
-1.16922 -1.6101 2.4030199
-0.29580799 -1.33261 2.1212299
-1.13307 -1.57727 2.3633499
-1.16186 -1.62536 2.4071801
-0.98887002 -1.15003 2.3401401
-1.02239 -1.14982 2.31107
-1.05516 -1.1373399 2.3103299
-1.06194 -1.1822701 2.3281801
-1.00547 -1.23175 2.34463
