# .PCD v0.7 - Point Cloud Data file format
VERSION 0.7
FIELDS x y z
SIZE 4 4 4
TYPE F F F
COUNT 1 1 1
WIDTH 145
HEIGHT 1
VIEWPOINT 0 0 0 1 0 0 0
POINTS 145
DATA ascii
4.6500902 0.91779202 8.0150805
4.6964102 0.92197698 7.9752302
4.6443601 0.92319798 8.0223999
4.6919599 0.92874199 7.9766598
4.6090102 0.953076 8.0655499
4.6991801 0.92513502 7.9795399
4.6258101 0.92684001 8.0453796
4.6877098 0.95163 7.9847102
4.6288099 0.924631 8.03829
4.69275 0.93015897 7.9948602
4.5987601 0.96255398 8.0914602
4.5990701 0.945723 8.0995302
4.6170802 0.955652 8.0644302
4.6863098 0.91909498 7.9795599
4.6098199 0.93924397 8.0814695
4.6205301 0.94220799 8.0782804
4.60464 0.96284097 8.0860796
4.6304498 0.93430197 8.0518198
4.6163402 0.96320999 8.0761099
4.6286702 0.951989 8.0509005
4.6493902 0.93067402 8.0324202
4.6551499 0.92826802 8.0202103
4.65517 0.92447501 8.01647
4.6671 0.92604297 8.0060596
4.67066 0.91785902 7.9889102
4.6694398 0.94916302 8.0077105
4.6751499 0.94700199 7.9965601
4.6526399 0.955589 8.0286198
4.6091299 0.96224701 8.0820503
4.6712198 0.94706303 7.9993501
4.6108198 0.94229001 8.0857296
4.6269598 0.93469399 8.0600996
4.6198502 0.94770002 8.0471802
4.6337399 0.946998 8.0324001
4.6518202 0.92658299 8.0209398
4.6536598 0.92084098 8.0081997
4.67027 0.91825402 7.9896598
4.66224 0.94427001 8.0016699
4.6764798 0.93951499 7.9838901
4.6058698 0.94391 8.0927696
4.6015501 0.95900398 8.0815201
4.6057901 0.958947 8.0793695
4.6743202 0.94544202 7.9927702
4.6817598 0.91982198 7.9814801
4.6629901 0.92062902 7.9999299
4.6494498 0.94970101 8.02174
4.6408401 0.92833102 8.0307302
4.6139698 0.95376098 8.0603905
4.5917401 0.948089 8.1106396
4.5657401 0.97628498 8.1237202
4.6117702 0.94103098 8.0813398
4.61973 0.93813902 8.07092
4.6695199 0.942788 7.9946799
4.65447 0.95148098 8.0218201
4.6599202 0.92367202 8.0041399
4.6531901 0.92199898 8.0118198
4.6462302 0.92774701 8.0289602
4.6282001 0.95177901 8.0470896
4.6120501 0.95634401 8.0687599
4.5993099 0.96456802 8.0916004
4.5903001 0.95056897 8.1148596
4.60427 0.96453202 8.0893002
4.6127701 0.960814 8.0732498
4.6347098 0.949503 8.0366602
4.6159301 0.95968997 8.0703802
4.6210799 0.95678902 8.0607004
4.62287 0.95703399 8.0585699
4.60217 0.96406001 8.0913601
4.6361799 0.93222302 8.0434198
4.6407499 0.93296498 8.0413704
4.64224 0.94356698 8.0215397
4.6052299 0.94727403 8.0956602
4.6099601 0.94344699 8.0861902
4.6132698 0.94204098 8.0810804
4.6147099 0.939996 8.0773697
4.6192498 0.94097102 8.0722904
4.6082802 0.96094197 8.0801601
4.6099401 0.96131402 8.0784903
4.6240602 0.93595803 8.0627899
4.63061 0.94020599 8.0589895
4.6234198 0.95413703 8.0557203
4.62462 0.95409101 8.05373
4.6348801 0.95547903 8.0447397
4.6399202 0.94904798 8.0355797
4.6380601 0.94969398 8.0327702
4.5833802 0.95726103 8.1305799
4.6003799 0.96567202 8.0914402
4.6757898 0.916089 7.9835401
4.65206 0.92478502 8.01618
4.6471901 0.94940001 8.02351
4.6571598 0.95298398 8.0206404
4.65769 0.94994098 8.01651
4.6628799 0.919254 7.9990401
4.6584301 0.94937301 8.0141096
4.6677599 0.92036498 7.99753
4.6624999 0.949884 8.0092402
4.6686902 0.91737401 7.9917202
4.6660299 0.94909602 8.0057297
4.67347 0.94689602 7.99651
4.6447501 0.94800198 8.0239201
4.6022902 0.94739503 8.1012697
4.6117802 0.94135201 8.0850401
4.6170902 0.939843 8.0773602
4.6147499 0.94283599 8.0758896
4.6212802 0.94150603 8.0748901
4.6170998 0.95646298 8.0678997
4.6225801 0.95585001 8.0586901
4.63518 0.93442398 8.0480204
4.6301498 0.955571 8.0509996
4.6409602 0.948116 8.0297403
4.61553 0.95783597 8.0654202
4.6063499 0.94575399 8.0954704
4.6003399 0.94835502 8.0980902
4.5728302 0.96021003 8.1395702
4.5759101 0.95861101 8.1359196
4.5836601 0.95542198 8.1261396
4.5879898 0.955953 8.1252899
4.5962601 0.95176399 8.11201
4.6880002 0.94905698 7.9836202
4.5697999 0.98452598 8.1321096
4.5970101 0.946401 8.09764
4.6047902 0.96258199 8.0859203
4.5795698 0.96051401 8.1397696
4.5756102 0.95521498 8.1008902
4.7096601 0.86675298 8.0001497
4.6810498 0.921538 7.9858999
4.68748 0.919698 7.9830699
4.64187 0.94532299 8.0274601
4.66326 0.92566699 8.0058298
4.6399102 0.94337898 8.0220404
4.65481 0.94898099 8.0177698
4.6687198 0.944341 8.00177
4.6518102 0.93087101 7.9925199
4.61625 0.95983797 8.0725899
4.6345 0.946545 8.03333
4.6106901 0.94793802 8.09655
4.6127 0.94808298 8.0933704
4.63307 0.95377803 8.0462999
4.6239901 0.94870901 8.0462303
4.6027699 0.95888197 8.0831203
4.5982699 0.959032 8.0859203
4.6136899 0.95871699 8.0745201
4.6008201 0.950221 8.1082296
4.5880198 0.96541899 8.1054096
4.5987501 0.95504701 8.11693
