# .PCD v0.7 - Point Cloud Data file format
VERSION 0.7
FIELDS x y z
SIZE 4 4 4
TYPE F F F
COUNT 1 1 1
WIDTH 261
HEIGHT 1
VIEWPOINT 0 0 0 1 0 0 0
POINTS 261
DATA ascii
-0.156728 -0.58315498 3.0636699
-0.13438 -0.45669699 3.0873001
-0.140515 -0.46680501 3.08426
-0.41373399 -0.60849798 2.7885799
-0.28876501 -0.61587399 3.0538099
-0.301772 -0.60321999 3.0392201
-0.268309 -0.61246699 3.0704899
-0.29483101 -0.61377198 3.0720799
-0.29133099 -0.61684501 3.0285499
-0.26820299 -0.61802602 3.0591099
-0.27608299 -0.61896598 3.04533
-0.251717 -0.62053198 3.07937
-0.26827401 -0.61522698 3.0817599
-0.26763901 -0.61263198 3.0685899
-0.553069 -0.58660698 3.11359
-0.304616 -0.60736197 3.1177101
-0.24631 -0.62212598 3.10495
-0.24465699 -0.57357597 3.25425
-0.58509499 -0.582838 3.12363
-0.17983 -0.60254699 3.32128
-0.26688299 -0.608908 3.1249299
-0.54768598 -0.55935299 3.30427
-0.51381302 -0.55307198 3.2808499
-0.36776599 -0.57924801 3.2950699
-0.361718 -0.59540898 3.19836
-0.211033 -0.64872497 3.2795899
-0.33965701 -0.65280497 3.3113501
-0.251726 -0.63931203 3.1309299
-0.59372699 -0.58066899 3.1245999
-0.27309299 -0.62066698 3.35816
-0.66704202 -0.58315802 3.3789301
-0.37178901 -0.59939802 3.1275899
-0.330935 -0.59078699 3.3166299
-0.45903999 -0.602503 3.36519
-0.59308499 -0.58107197 3.12238
-0.21689101 -0.60208899 3.3153901
-0.19102 -0.54723299 3.0640299
-0.60522997 -0.60044301 3.37467
-0.51459098 -0.61903203 3.3910999
-0.49760199 -0.58941197 3.33915
-0.120699 -0.56529897 3.0055201
-0.16489901 -0.56680697 3.12608
-0.42594799 -0.59545702 3.33652
-0.31035501 -0.60865802 3.33585
-0.66247803 -0.58158702 3.3466799
-0.37873399 -0.62622398 3.37606
-0.160285 -0.56444001 3.1285701
-0.166438 -0.55427599 3.0783701
-0.171993 -0.56568199 3.1326499
-0.210465 -0.61329401 3.3178101
-0.56091797 -0.57983202 3.3294401
-0.46637899 -0.59232497 3.3328199
-0.306106 -0.58779597 3.1879301
-0.65272099 -0.58381999 3.34569
-0.576913 -0.60333502 3.36605
-0.25086701 -0.612324 3.32265
-0.233354 -0.61728501 3.33197
-0.201813 -0.54098397 3.0181
-0.51018298 -0.58455902 3.3269
-0.41489401 -0.59693098 3.3294899
-0.358336 -0.601457 3.3248601
-0.14354999 -0.56291699 3.0051899
-0.161979 -0.56333202 3.12219
-0.55736202 -0.57673901 3.3176899
-0.243716 -0.61843699 3.08918
-0.36004701 -0.58997399 3.3069601
-0.63631201 -0.56944799 3.3182399
-0.58416301 -0.57586801 3.32144
-0.480869 -0.58554602 3.3199
-0.44220701 -0.58857 3.31621
-0.41687399 -0.58100802 3.30162
-0.331848 -0.59843302 3.30986
-0.29668301 -0.60901701 3.3247299
-0.24271899 -0.59833902 3.29807
-0.16467001 -0.562235 3.08933
-0.61681497 -0.570831 3.3178999
-0.25684601 -0.63454598 3.12166
-0.202785 -0.53773999 3.04865
-0.22553299 -0.60114902 3.30003
-0.37247699 -0.60380298 3.1215301
-0.57364202 -0.57376301 3.3138299
-0.51854098 -0.57930499 3.3152399
-0.195456 -0.552113 3.08446
-0.33324701 -0.666233 2.9186699
-0.58726299 -0.58136803 3.1173699
-0.31273299 -0.66234899 2.9507599
-0.6487 -0.56220198 3.3083999
-0.60885501 -0.56708997 3.3066199
-0.57100803 -0.57044703 3.3056099
-0.50797302 -0.57870001 3.30778
-0.464385 -0.583112 3.30741
-0.46874499 -0.57138598 3.29404
-0.416991 -0.59170002 3.31563
-0.31442899 -0.60128802 3.3104801
-0.61075902 -0.55403799 3.28795
-0.57268697 -0.57150501 3.31023
-0.52152598 -0.577218 3.3106599
-0.422079 -0.57696301 3.29497
-0.35380101 -0.59701198 3.3104
-0.291778 -0.590855 3.2918
-0.24614599 -0.59595501 3.2887299
-0.36957601 -0.60635 3.1190901
-0.37276101 -0.60131598 3.1208601
-0.26141101 -0.63406003 3.12148
-0.34737501 -0.58543801 3.29579
-0.26600501 -0.59223998 3.2897999
-0.191855 -0.609846 3.32112
-0.621885 -0.58637798 3.37889
-0.21080001 -0.53241801 2.9951701
-0.56327403 -0.583583 3.1185901
-0.26471299 -0.62997001 3.1223099
-0.62002802 -0.561508 3.2950599
-0.60373402 -0.56435001 3.29495
-0.57784998 -0.56563401 3.2949901
-0.38955599 -0.61838299 3.21158
-0.53183198 -0.57137299 3.2964599
-0.48229101 -0.57773501 3.29826
-0.494955 -0.55607301 3.2746
-0.45845699 -0.57848197 3.2962501
-0.45188999 -0.55983001 3.2722099
-0.32108599 -0.59450698 3.19522
-0.42407301 -0.56398898 3.2739501
-0.39090699 -0.57008702 3.2746301
-0.37395301 -0.57084101 3.27439
-0.35608101 -0.57212901 3.27473
-0.26752499 -0.60242403 3.30145
-0.19273201 -0.56604803 3.10797
-0.16425499 -0.57114202 3.0943401
-0.165218 -0.57122099 3.1066999
-0.249458 -0.58361602 3.27477
-0.65479499 -0.55810398 3.29671
-0.311252 -0.61270702 3.1187201
-0.162641 -0.57221699 3.1169801
-0.22850201 -0.58519 3.2751601
-0.26176199 -0.63351899 3.11865
-0.586757 -0.565413 3.2946701
-0.57279199 -0.56524903 3.2909601
-0.38861901 -0.61786801 3.20298
-0.54070401 -0.56893498 3.2937901
-0.53058702 -0.569511 3.2899101
-0.306649 -0.61264002 3.11777
-0.53342497 -0.55196601 3.27267
-0.33778301 -0.62716103 3.2128301
-0.262889 -0.62023902 3.11765
-0.47409099 -0.558155 3.2723601
-0.42253199 -0.58251601 3.2930601
-0.40193599 -0.56609899 3.27408
-0.57534403 -0.54755503 3.2734101
-0.486918 -0.57537401 3.2929499
-0.23039401 -0.58388901 3.2739601
-0.29817399 -0.59800702 3.0328801
-0.492434 -0.554941 3.2727399
-0.42549899 -0.56311202 3.2713499
-0.307854 -0.58888 3.1846299
-0.39888099 -0.56683999 3.2719901
-0.36061099 -0.59764898 3.11815
-0.52253801 -0.55312401 3.2730899
-0.252276 -0.628272 3.11743
-0.24790099 -0.61062503 3.09216
-0.44670799 -0.57763398 3.2901599
-0.379381 -0.56737202 3.27002
-0.344457 -0.58915901 3.28984
-0.29132399 -0.59813398 3.28689
-0.31773901 -0.57245302 3.2711101
-0.54730201 -0.56754398 3.2916801
-0.31807199 -0.61129397 3.1174901
-0.25716299 -0.62939298 3.1185501
-0.44501501 -0.561068 3.26947
-0.29289699 -0.59154999 3.18571
-0.419182 -0.56284702 3.2708399
-0.41280201 -0.56366402 3.2722299
-0.39502999 -0.56562901 3.2699101
-0.270693 -0.57866102 3.27125
-0.247757 -0.58248401 3.2701099
-0.48720899 -0.57305098 3.2859499
-0.48912099 -0.55743998 3.27161
-0.42709401 -0.56088102 3.27021
-0.39031699 -0.566145 3.2685299
-0.37965199 -0.56592602 3.26881
-0.35760999 -0.56956601 3.2702401
-0.26997101 -0.59784901 3.2901399
-0.21790899 -0.58406001 3.2704401
-0.45028099 -0.55945498 3.27037
-0.312599 -0.59399998 3.1898701
-0.331202 -0.570876 3.26966
-0.40368301 -0.5654 3.26999
-0.31558001 -0.57254398 3.2688799
-0.225759 -0.58311599 3.2693801
-0.28931099 -0.57733399 3.2685399
-0.29949099 -0.57408899 3.26842
-0.26850501 -0.58030999 3.2681201
-0.233729 -0.58175099 3.2683899
-0.220759 -0.58319801 3.2692499
-0.27064899 -0.57695901 3.2681701
-0.27068901 -0.62277699 3.12709
-0.368954 -0.60600001 3.1227601
-0.164396 -0.55079299 3.0929201
-0.53424501 -0.58082598 3.3281801
-0.33611801 -0.60684502 3.3368199
-0.56391901 -0.580239 3.1187501
-0.472662 -0.562132 3.2836599
-0.403927 -0.56910402 3.2821901
-0.328989 -0.57573301 3.27478
-0.275466 -0.57977998 3.27299
-0.58851498 -0.581236 3.1151299
-0.42469901 -0.58795398 3.3045399
-0.63464803 -0.56324798 3.3009
-0.62616199 -0.56412703 3.3006599
-0.56732798 -0.56941301 3.3004
-0.50944602 -0.57574302 3.2992699
-0.451857 -0.58023602 3.29842
-0.30970699 -0.59945703 3.30404
-0.30784401 -0.59867299 3.2995901
-0.381897 -0.59008598 3.30023
-0.28652301 -0.61444098 3.1166301
-0.261446 -0.63186502 3.1166401
-0.527017 -0.54887998 3.2676001
-0.27910101 -0.61432803 3.11694
-0.485861 -0.55463302 3.26861
-0.25263101 -0.60722297 3.08727
-0.39345101 -0.56263798 3.26686
-0.307475 -0.58417797 3.1810801
-0.232511 -0.57997602 3.26702
-0.30824599 -0.57232797 3.26601
-0.39980999 -0.56536001 3.26948
-0.363103 -0.58639699 3.2832799
-0.34164599 -0.57194197 3.2685699
-0.31720799 -0.57241899 3.2667
-0.28926399 -0.575688 3.26717
-0.237013 -0.58160198 3.26723
-0.212593 -0.58472401 3.2672501
-0.254316 -0.57881898 3.2674699
-0.180747 -0.59846199 3.2165501
-0.213608 -0.58413702 3.2671199
-0.144532 -0.53510797 2.8782001
-0.15403301 -0.57091802 2.86554
-0.21651401 -0.534917 2.8820701
-0.161562 -0.560996 2.8724101
-0.281405 -0.40483001 2.7938499
-0.15806 -0.56176603 2.8671401
-0.17186999 -0.54869801 2.8854899
-0.156205 -0.55841798 2.87748
-0.19125099 -0.56181598 2.8883901
-0.17320199 -0.52534997 2.9890599
-0.15734699 -0.56110197 2.87713
-0.181491 -0.54290497 2.98453
-0.118435 -0.54830998 2.9551899
-0.17163301 -0.53770602 2.9791
-0.159676 -0.56130302 2.8662901
-0.099988699 -0.55370802 2.951
-0.077053197 -0.60955799 2.9460399
-0.278193 -0.38978401 2.79057
-0.16522001 -0.538921 2.97312
-0.26088601 -0.38450199 2.78268
-0.26196799 -0.38962501 2.78497
-0.055363402 -0.59206301 2.9319201
-0.097521096 -0.550924 2.9507599
-0.16420799 -0.57232898 2.8662801
-0.17741901 -0.54023498 2.9900401
-0.115908 -0.55060601 2.9611599
-0.21751601 -0.40456101 2.8485799
