# .PCD v0.7 - Point Cloud Data file format
VERSION 0.7
FIELDS x y z
SIZE 4 4 4
TYPE F F F
COUNT 1 1 1
WIDTH 223
HEIGHT 1
VIEWPOINT 0 0 0 1 0 0 0
POINTS 223
DATA ascii
6.11905 0.256446 6.0921602
6.1229601 0.28692901 6.0886998
6.0145102 0.28461 6.1111598
6.02249 0.28729799 6.1111102
6.0192099 0.30138001 6.1024098
6.0208998 0.332432 6.1136298
6.0283799 0.378077 6.12816
6.03265 0.40402001 6.1080599
6.0320601 0.38493001 5.97119
6.0458899 0.53031898 6.08286
6.0480099 0.54617399 6.0959802
6.1402302 0.289891 6.1174102
6.0181298 0.27818701 6.12497
6.1334801 0.32931599 6.0980902
6.0229001 0.30937999 6.1216002
6.1395502 0.35586599 6.1201901
6.0317602 0.35640001 6.1266298
6.0362101 0.38480899 6.1107602
6.0339298 0.412644 6.1255698
6.0796499 0.40621901 5.9930801
6.0602398 0.44387001 5.9348302
6.0416198 0.489371 6.1002302
6.0475502 0.52866101 6.0984998
6.0752602 0.54356301 5.92413
6.05865 0.59493601 6.0943298
6.1317801 0.26971501 6.1245699
6.0662999 0.473295 6.18854
6.06603 0.458058 5.93362
6.05826 0.53709102 6.13309
6.0648499 0.59176701 6.1226401
6.0603499 0.59852201 6.1251502
6.0639 0.53169298 6.1335702
6.0453801 0.397284 6.1444702
6.0345898 0.32456601 6.1635799
6.1463199 0.31178299 6.1561298
6.1425099 0.260775 6.1575999
6.0689602 0.46030399 5.9555602
6.0391002 0.36322999 6.1508899
6.1459999 0.28140101 6.1669698
6.0276499 0.28116399 6.1629701
6.0401101 0.37375 6.1768799
6.06954 0.58208901 6.1312399
6.05828 0.54108202 6.1274099
6.0640998 0.53514802 6.12749
6.0629401 0.53471398 6.1638098
6.0568099 0.46028 6.16541
6.03754 0.37122899 6.1492701
6.1450901 0.226079 6.1789699
6.1482801 0.26321301 6.1752701
6.1514101 0.30037099 6.1714001
6.1480999 0.31027299 6.1791902
6.1522298 0.35543701 6.1754699
6.1584201 0.36881599 6.16784
6.0429401 0.38438499 6.1465302
6.04915 0.51528603 6.14042
6.0364699 0.31256101 6.1518302
6.03127 0.29418299 6.1636701
6.0654302 0.57894403 6.1263299
6.0521798 0.44744101 6.1540799
6.03899 0.39330399 6.1522198
6.0611801 0.56099498 6.1324401
6.07867 0.52965099 5.9531898
6.0653 0.43346101 5.9461899
6.14678 0.29150301 6.1788802
6.15556 0.32543501 6.1814399
6.04216 0.41717401 6.1451602
6.04951 0.40930301 5.9577298
6.04983 0.53798699 6.1262898
6.0585098 0.41301301 5.9635601
6.0521698 0.46393099 6.1635499
6.0309601 0.43454999 6.1143899
6.04251 0.50130099 6.1077299
6.02075 0.30676901 6.1593699
6.04003 0.53926498 6.09622
6.0285001 0.427302 6.1193199
6.0131202 0.33319101 6.0952101
6.0157499 0.29403701 6.11411
6.1410899 0.33594501 6.1582098
6.0127101 0.32110101 6.09411
6.01578 0.36700499 6.1161299
6.0176201 0.37186199 6.0954599
6.0571299 0.49163899 6.20082
6.00951 0.29501599 6.11657
6.1287098 0.24016701 6.1665602
6.1458998 0.29924601 6.2010398
6.12818 0.29815599 6.1043901
6.0139699 0.30491799 6.1086102
6.14535 0.35932001 6.1593699
6.1269898 0.34946701 6.0863299
6.0228 0.38870499 6.1145301
6.0372601 0.49121299 6.1085801
6.0455098 0.512573 6.1052999
6.0444598 0.53675503 6.0941601
6.0398502 0.52804899 6.10641
6.0125299 0.29536101 6.1202598
6.1402502 0.34734401 6.15483
6.13552 0.28127399 6.1697502
6.0531902 0.45871899 5.9312901
6.02911 0.46685001 6.1027298
6.1486101 0.348528 6.1813402
6.0075402 0.26915199 6.1206298
6.0320401 0.46490601 6.1041198
6.0547199 0.44700101 5.9457302
6.0465202 0.58003902 6.1082201
6.1445198 0.32030699 6.1778498
6.0096798 0.29313099 6.1181798
6.0363898 0.323082 6.15166
6.1457901 0.25746101 6.1849999
6.03163 0.30983701 6.1553998
6.1546998 0.291078 6.1721501
6.0493598 0.58878797 6.09728
6.0581002 0.59006298 6.0918398
6.0227299 0.353966 6.10883
6.0556002 0.40665501 5.9547901
6.0399599 0.46951899 6.1070399
6.0437102 0.49879 6.1120701
6.0536199 0.55785 6.0997701
6.0364099 0.40730301 6.12256
6.0847902 0.403211 5.9998102
6.06359 0.44916099 5.9412298
6.12429 0.339053 6.1087399
6.0281301 0.385436 6.1195502
6.0282698 0.469652 6.0895901
6.0427299 0.55982602 6.08707
6.05509 0.46777499 5.93472
6.0229502 0.386329 6.1213002
6.1234598 0.327768 6.1100998
6.0180101 0.348308 6.12637
6.0422502 0.540084 6.09901
6.1189198 0.278449 6.11235
6.0292401 0.39646 6.1275702
6.1217999 0.346365 6.09762
6.0176702 0.31368899 6.1382499
6.01052 0.32081601 6.1135702
6.0039401 0.32888499 6.09127
6.0233798 0.42272899 6.0949101
6.0563502 0.57235903 6.1166101
6.0427499 0.46850899 6.1284399
6.13309 0.32003301 6.1233702
6.11585 0.26845801 6.1099901
6.0197902 0.28144199 6.1603198
6.0439 0.52360201 6.1146498
6.0506701 0.58933598 6.0910602
6.0630498 0.40124801 5.9754601
6.1394901 0.33978099 6.1136799
6.1388302 0.311463 6.12007
6.1311102 0.36599299 6.1039
6.0332899 0.55202502 6.0673299
6.0090899 0.351248 6.1106901
6.11833 0.348371 6.0865202
6.02776 0.51261503 6.0866699
6.04425 0.55780202 6.0950398
6.0114899 0.28670001 6.1318302
6.01156 0.298311 6.1286998
6.0215902 0.385236 6.1180401
6.1250901 0.36150101 6.09624
6.0199099 0.39436901 6.1134501
6.0145402 0.370132 6.1034198
6.03687 0.57616299 6.0805202
6.0060601 0.31011501 6.1182299
6.0100398 0.30207199 6.1143198
6.0336399 0.47938001 6.1076198
6.1149998 0.28821799 6.1106601
6.0079699 0.291181 6.1558499
6.1117501 0.24225 6.11763
6.01863 0.42252001 6.0973501
6.0118799 0.26365101 6.1366401
6.0167899 0.365942 6.11731
6.1246901 0.29939899 6.1054902
6.0149698 0.32301 6.1268501
6.0295901 0.467471 6.1021199
6.0416098 0.56787801 6.0843501
6.0503201 0.410375 5.9547501
6.0756502 0.398388 6.0004401
6.0760598 0.400783 5.9816198
6.11236 0.29468 6.10988
6.0153799 0.386448 6.1040401
6.07265 0.40338701 5.9896698
6.0206099 0.404515 6.0982399
6.0599499 0.40345699 5.9692202
6.0668402 0.39908201 5.9813299
6.01651 0.386603 6.09972
6.0150499 0.342489 6.11377
6.0145402 0.304133 6.13065
6.03794 0.48366901 6.1065798
6.0307102 0.46517301 6.1069598
6.0308099 0.45051301 6.0987201
6.1210699 0.30423701 6.0934401
6.0370002 0.39064401 6.1624398
6.0209599 0.378362 6.10815
6.0139098 0.29572001 6.1321001
6.1178198 0.28578001 6.1018701
6.1083298 0.247264 6.0993099
6.1156101 0.24219801 6.11239
6.01226 0.28116599 6.1276999
6.0232301 0.378463 6.1191301
6.1229901 0.35144001 6.08498
6.11726 0.26095101 6.1006899
6.0510998 0.40075299 5.95613
6.03654 0.51924998 6.1002402
6.0555401 0.403723 5.9653101
6.0212202 0.32300299 6.13908
6.1152301 0.32025799 6.0858798
6.0229001 0.41171601 6.0945601
6.0200801 0.32863501 6.1300902
6.1261902 0.352902 6.09481
6.1175699 0.29541999 6.0989199
6.0099502 0.25922799 6.1342301
6.1178699 0.309232 6.0931702
6.01475 0.40448499 6.09445
6.07305 0.402013 5.9938202
6.0188799 0.31606999 6.1345201
6.0158501 0.300179 6.1472201
6.1230698 0.343981 6.0968699
6.0089002 0.278373 6.1489301
6.1122599 0.25013301 6.1090398
6.00248 0.25940001 6.13346
6.1150599 0.30987301 6.0860801
6.11624 0.28389099 6.1099
6.0232501 0.414758 6.0980802
6.0338602 0.46451801 6.1245298
6.0085001 0.290216 6.1270199
6.0075898 0.27139801 6.1231499
