# .PCD v0.7 - Point Cloud Data file format
VERSION 0.7
FIELDS x y z
SIZE 4 4 4
TYPE F F F
COUNT 1 1 1
WIDTH 800
HEIGHT 1
VIEWPOINT 0 0 0 1 0 0 0
POINTS 800
DATA ascii
3.55162 1.14281 7.5803599
3.4205899 1.14056 7.4558301
3.4765 1.18985 8.0545702
3.4528601 1.13849 7.4405098
3.45648 1.13096 7.6757498
3.4509101 1.11638 7.6723599
3.4540801 1.12433 7.6929498
3.45891 1.1197799 7.68086
3.4479899 1.12295 7.6479101
3.46415 1.12919 7.6556001
3.4500599 1.11896 7.6836801
3.4620199 1.1331 7.7547898
3.47383 1.11308 7.7477698
3.48139 1.11411 7.7514501
3.10391 1.1672 8.1882601
3.1079199 1.16031 8.1684103
3.44625 1.13386 7.72047
3.46134 1.11783 7.79212
3.31198 1.17898 8.0848999
3.4472899 1.127 7.6224098
3.44894 1.13124 7.6986899
3.4699199 1.09856 7.69665
3.4691 1.1246901 7.6398201
3.44519 1.12384 7.6650701
3.4752901 1.1258301 7.8011498
3.42485 1.15565 7.8281398
3.2776999 1.08456 7.9371099
3.45189 1.11779 7.6949201
3.45172 1.11546 7.6846199
3.44258 1.12286 7.6759
3.4433501 1.12431 7.6733398
3.4763999 1.11745 7.6416202
3.09004 1.17251 8.1716099
3.0537601 1.19221 8.1800299
3.45171 1.12744 7.7117701
3.46861 1.1210901 7.7376199
3.4681699 1.1192501 7.7402401
3.47172 1.1284 7.7652702
3.4712 1.12658 7.7680302
3.44503 1.13894 7.8259201
3.4683299 1.12665 7.8284702
3.4949901 1.15118 8.0354605
3.4633701 1.14457 7.9311299
3.5212901 1.14205 7.9837298
3.5144401 1.1477 8.0393295
3.4749701 1.11841 7.7487602
3.46538 1.12019 7.7290602
3.47293 1.12591 7.7616901
3.57637 1.0716799 7.9163599
3.49365 1.16247 8.0476303
3.3852701 1.16703 8.0428801
3.4458201 1.14028 7.94733
3.5156 1.1425 7.9980698
3.5169101 1.14347 7.99016
3.5151401 1.14412 7.9821501
3.4556401 1.14973 7.9377999
3.3336599 1.16249 8.0792599
3.52301 1.14553 8.0599098
3.49863 1.1414599 8.0270205
3.4784701 1.13692 7.8536301
3.4777701 1.14425 7.8579702
3.4979899 1.15257 7.9747901
3.4967899 1.15683 8.0440302
3.4575801 1.14202 7.947
3.4465499 1.14451 7.9604201
3.4806001 1.13103 7.9206901
3.4895301 1.13309 7.8512998
3.5164101 1.15309 8.0775299
3.3377199 1.23119 8.1670704
3.5078599 1.15025 8.0425596
3.47947 1.13047 7.9243898
3.5343101 1.13006 8.0619497
3.5261199 1.13937 7.97649
3.4226201 1.15452 7.8807602
3.4045801 1.2250299 8.0710802
3.53756 1.07605 7.8536601
3.4166801 1.1175801 7.7009902
3.45771 1.08473 7.7009301
2.9785399 1.17785 7.8253999
2.9740601 1.22803 8.1808004
2.9745901 1.22004 8.1262302
2.9785199 1.21097 8.0652103
2.97837 1.20745 8.0500498
2.96806 1.21295 8.0451202
2.97979 1.20526 8.0294104
2.97577 1.2058901 8.0110998
2.9541199 1.21375 7.9957399
2.9410801 1.22062 7.9916501
3.3471999 1.18243 8.1418104
2.9948399 1.18845 7.9516802
3.22352 1.1234699 7.9601598
2.98434 1.18917 7.9317498
2.95156 1.20164 7.90342
2.9647701 1.19719 7.8886399
2.9837101 1.18001 7.8656998
2.98382 1.1807801 7.8459101
2.98875 1.17707 7.8362799
3.50736 1.11689 7.8452501
3.4784901 1.0941401 7.6905298
3.5638399 1.09945 7.7332802
3.4594901 1.12133 7.6507502
3.43206 1.1365401 7.67871
3.43396 1.1392699 7.73349
3.4716699 1.09374 7.7131901
2.9707501 1.20134 7.9359198
3.51752 1.08549 7.84796
3.4877901 1.08499 7.6791701
3.2873199 1.08557 7.9449301
3.474 1.08702 7.72188
3.47262 1.11472 7.7431402
2.9991701 1.20313 8.0403099
3.2572801 1.10545 7.9540401
3.3424499 1.16631 7.7091599
3.00582 1.1806901 7.9293799
3.26542 1.10072 7.9376602
3.3157899 1.17575 7.71803
3.5028801 1.0754 7.6918402
3.4774401 1.11053 7.7375398
3.02667 1.1687 7.9144502
3.48669 1.0884399 7.68859
3.4768 1.10151 7.69522
3.01331 1.19871 8.0922203
3.49418 1.08292 7.67693
3.49579 1.07947 7.6613798
3.0387599 1.18499 8.1081896
3.4579599 1.12319 7.66535
3.4577899 1.1237 7.6519699
3.4971499 1.15451 8.0385504
3.51016 1.14563 8.0392799
3.4860001 1.08772 7.6806502
3.00495 1.19005 7.9892802
3.0265701 1.17443 7.9524002
3.0406499 1.16027 7.9017301
3.0420001 1.1627001 7.9060202
3.03848 1.19649 8.1567497
3.40431 1.1552401 8.04704
3.0509801 1.19155 8.2030401
3.0385399 1.1871099 8.1027899
3.0244401 1.19792 8.1617298
3.00787 1.2018 8.0769997
3.0147099 1.19646 8.0626898
3.0413799 1.19282 8.1707697
3.51529 1.1238101 8.00595
3.5299101 1.13442 7.9794898
3.44507 1.1467 7.8565202
3.49561 1.1251301 7.8473001
3.4470501 1.15171 7.8052902
3.49681 1.0977401 7.75846
3.4985099 1.09413 7.75177
3.4742501 1.10969 7.7274799
3.46102 1.11236 7.70467
3.0371699 1.2011 8.1939001
3.4942501 1.1213599 7.8194399
3.4730201 1.13621 7.82019
3.2429299 1.11338 7.9333501
2.99505 1.18015 7.9203601
3.01841 1.1553299 7.7936602
3.06198 1.17882 8.1531496
3.09708 1.1531399 8.0639296
3.0674 1.16746 8.0536804
3.0260201 1.18244 8.0362101
3.04057 1.17583 7.9913902
3.0311301 1.16768 7.9391999
3.0190001 1.16829 7.89503
3.2259099 1.12379 7.95016
3.2362499 1.12464 7.9588699
3.03543 1.15688 7.84937
3.0392001 1.17477 8.0186005
2.99506 1.16792 7.8170199
3.3531899 1.18466 8.0906897
3.04231 1.14062 7.7756801
3.04375 1.1391799 7.7512798
3.4888699 1.15455 8.0628004
3.5227799 1.14224 8.06464
3.03213 1.1432 7.72089
3.50687 1.14546 8.0003901
3.5027201 1.14983 7.9765701
3.5249901 1.07064 7.8459501
3.48546 1.07886 7.81493
3.47087 1.11316 7.8203902
3.41711 1.1503 7.80687
3.4993501 1.1064301 7.8024998
3.4970701 1.10761 7.7972298
3.4981799 1.10427 7.7830501
3.42224 1.13257 7.7538099
3.3951199 1.1358 7.7347898
3.45417 1.09983 7.7281299
3.48069 1.11291 7.75699
3.4912 1.1051199 7.7491598
3.4770899 1.10004 7.7238998
3.4219899 1.1133 7.6847401
3.4726901 1.1079299 7.7115102
3.3364401 1.15014 7.6624398
3.46105 1.10458 7.64221
3.4632399 1.1037199 7.63025
3.4557099 1.12577 7.6398802
3.4496801 1.11838 7.61199
3.5882101 1.1089 7.69207
3.5526099 1.0451699 7.5656199
3.53193 1.05876 7.5581002
3.08163 1.16504 8.1013002
3.0505099 1.18577 8.1378202
3.00737 1.15696 7.7653298
3.4537499 1.1094 7.66431
3.4346099 1.09987 7.6544099
3.35128 1.13614 7.6461501
3.01267 1.16919 7.9015698
3.00846 1.17776 7.9342999
3.43889 1.12956 7.69101
3.45628 1.10759 7.68643
3.49156 1.09129 7.6950598
3.4650199 1.11641 7.7613401
3.52526 1.10542 7.8400402
3.02738 1.14115 7.7118602
3.00494 1.16231 7.7890401
3.45821 1.1257499 7.8151398
3.0990601 1.15406 8.0630798
3.0843 1.16123 8.0227098
3.04217 1.16827 7.9723902
3.0343201 1.17298 7.9443598
3.3269 1.15054 8.0742798
3.0339799 1.15509 7.8344302
3.00949 1.1646399 7.8256798
3.4182701 1.15672 8.0826101
3.37623 1.14653 8.0204
3.02052 1.14987 7.7319198
3.0320201 1.14845 7.7381001
3.0301399 1.14197 7.7072802
3.02911 1.14753 7.7171602
3.01805 1.16673 7.86619
3.00704 1.16755 7.8593001
3.5255101 1.07427 7.84727
3.4985499 1.10215 7.8469801
3.48261 1.11421 7.7800698
3.0402999 1.16686 7.9567699
3.40908 1.13678 7.7508898
3.3566799 1.1291 7.6217599
3.4644899 1.1028 7.6496902
3.3719001 1.10855 7.5819702
3.33658 1.13657 7.5901999
3.47352 1.08446 7.6151199
3.4711201 1.11604 7.6375098
3.0703299 1.1641001 8.02981
3.0801599 1.16008 8.0394697
3.46924 1.1092499 7.7072701
3.47614 1.11431 7.6073399
3.4519899 1.11473 7.6168499
3.02935 1.14855 7.76228
3.21662 1.1263601 7.9545698
3.0246401 1.1670099 7.9024301
3.0215001 1.1670001 7.89995
3.48858 1.10605 7.7501001
3.0945499 1.15888 8.0831699
3.46965 1.1091 7.7126999
3.45489 1.10983 7.6866498
3.17272 1.17408 8.0253201
3.04176 1.16459 7.9042501
3.50877 1.11762 7.8429399
3.0623801 1.18055 8.1178598
3.36164 1.12639 7.6237702
3.09427 1.16541 8.0924397
3.03825 1.1707799 7.99682
3.0309801 1.1723 7.9587798
3.2581201 1.18292 8.1403704
3.0140901 1.16356 7.8357
3.3115699 1.16741 8.0941401
3.00722 1.16196 7.8159399
3.3051901 1.17363 8.0920897
2.9983301 1.15523 7.7342601
3.49894 1.14737 7.9725699
3.5323999 1.0782501 7.84864
3.42501 1.10796 7.7771902
3.3945899 1.14438 7.7319899
3.4823799 1.09638 7.7199302
3.4700601 1.11707 7.7407999
3.4733901 1.0994999 7.7114201
3.37274 1.11375 7.6262202
3.4770601 1.09421 7.6735201
3.3426299 1.13337 7.5952001
3.4416499 1.13134 7.6631999
3.3387799 1.12773 7.5518799
3.4675801 1.10347 7.6213698
3.4728301 1.11666 7.6177602
3.0113499 1.15251 7.7206001
3.0114501 1.1541899 7.7335701
3.0170701 1.15742 7.7838502
3.3014801 1.17618 8.0840197
3.0374701 1.15549 7.8371902
3.03122 1.1734999 7.98557
3.1050899 1.1644 8.1644697
3.4823699 1.07759 7.6142101
3.51752 1.1434799 7.9860702
3.40553 1.14487 8.0423603
3.4992399 1.1039799 7.9100499
3.4786899 1.11678 7.92974
3.5130999 1.1501499 8.0441799
3.49419 1.11919 7.9204102
3.5097201 1.13755 8.0069799
3.5218401 1.14068 8.0410404
3.50545 1.1451499 8.0444803
3.0255101 1.14853 7.7529402
3.0912299 1.17287 8.1898699
3.0782299 1.1698999 8.1538801
3.0936 1.15899 8.0929499
3.0773499 1.161 8.0555401
3.08956 1.15832 8.0593996
3.0882499 1.16176 8.0541
3.0777099 1.15991 8.0255499
3.06164 1.16682 8.0026598
3.05601 1.15806 7.9606099
3.0611 1.15874 7.9671898
3.0513999 1.15649 7.9265599
3.0420799 1.15518 7.8652101
3.04755 1.1509 7.8476
3.0392001 1.1474299 7.8193498
3.0351701 1.15162 7.80304
3.03965 1.14794 7.7869301
3.0359099 1.14213 7.7259302
3.5515399 1.06751 8.0172997
3.00932 1.16395 7.6988201
3.434 1.14162 7.9636998
3.51085 1.12523 8.0018797
3.5120699 1.13591 8.0079098
3.50296 1.14288 8.0049496
3.5079401 1.14073 7.9711499
3.47386 1.10993 7.81709
3.41732 1.12596 7.7564998
3.3933799 1.1331 7.7321
3.3646901 1.11817 7.6313
3.34712 1.13901 7.64256
3.3645201 1.11339 7.5792499
3.4437799 1.11393 7.6556902
3.37397 1.11575 7.5859098
3.37798 1.11113 7.57652
3.47208 1.0983599 7.6406698
3.48703 1.10475 7.6647902
3.45402 1.12679 7.6493201
3.4672201 1.11933 7.6391101
3.4765799 1.16097 7.7098699
3.47734 1.11268 7.6221499
3.4806399 1.10001 7.5910001
3.50717 1.0882699 7.59972
3.50454 1.09418 7.60043
3.44998 1.13194 7.8129201
3.3635199 1.12095 7.6027002
3.35344 1.14145 7.6662898
3.48822 1.10353 7.7372599
3.3263199 1.16074 7.6873598
3.07217 1.17154 8.1248798
3.0976701 1.16919 8.1757898
3.4739799 1.10105 7.78546
3.35483 1.1454901 7.7003598
3.5079601 1.0943201 7.7579598
3.50527 1.09658 7.75247
3.4872601 1.10296 7.7315402
3.0892799 1.16694 8.1760597
3.0929 1.16659 8.1625099
3.0717199 1.16178 8.0331097
3.05708 1.1611201 7.9867201
3.0566199 1.15687 7.9454098
3.0604601 1.15942 7.9568701
3.0454099 1.15364 7.8835001
3.05459 1.15355 7.8928199
3.0499201 1.15714 7.88485
3.05597 1.15711 7.8910799
3.04949 1.14781 7.8322501
3.0418899 1.15002 7.81776
3.0355899 1.1413701 7.7627902
3.0436499 1.14413 7.7786798
3.0292399 1.14308 7.7486501
3.03441 1.1385601 7.7183399
3.38761 1.14689 8.0426197
3.4070899 1.0707901 7.7841101
3.47873 1.11143 7.9264898
3.4396701 1.14099 7.9424601
3.49635 1.1265301 7.8525
3.4089601 1.13375 7.7277598
3.3671701 1.1113 7.5918798
3.4888101 1.09299 7.6819
3.4414101 1.13386 7.65697
3.4583299 1.12483 7.65975
3.50053 1.10457 7.6704898
3.4746599 1.10049 7.6119299
3.4684501 1.10676 7.6036901
3.4877501 1.1052999 7.6160898
3.4856 1.10811 7.6183
3.57463 1.10691 7.67734
3.4267001 1.10978 7.7718601
3.5632701 1.08031 7.93892
3.10146 1.16468 8.0978804
3.1918499 1.14275 7.9598398
3.3966899 1.15644 8.0443296
3.45017 1.12765 7.7867899
3.4291201 1.12709 7.7788701
3.50684 1.1479599 7.9907999
3.4377201 1.13583 7.6694102
3.0317199 1.15599 7.8614001
3.0559001 1.15818 7.8719401
3.4830999 1.0901901 7.6792898
3.0520699 1.1616499 7.9411602
3.0975599 1.16522 8.1482096
3.4331501 1.11242 7.7444401
3.4915199 1.11235 7.80791
3.4136 1.17961 7.9085598
3.0657799 1.16643 8.04006
3.4858501 1.09799 7.91854
3.4951999 1.10352 7.7383699
3.0578599 1.16584 7.97859
3.5262599 1.10868 7.5657401
3.5188701 1.13068 8.0262098
3.05546 1.16564 7.9333301
3.4660599 1.12231 7.8101301
3.4920001 1.09156 7.6858101
3.3629701 1.13393 7.6455402
3.0441799 1.15639 7.9184098
3.0908101 1.16749 8.1276703
3.44977 1.12129 7.7993498
3.4837699 1.13219 7.8485498
3.5021701 1.10435 7.6571002
3.4925399 1.09367 7.6964502
3.08285 1.16518 8.0873299
3.55688 1.10387 7.67309
3.4744999 1.0942 7.6743398
3.0819499 1.16271 8.0620804
3.4783499 1.10174 7.73558
3.4521999 1.11836 7.6040401
3.4775801 1.11426 7.6186199
3.47034 1.11845 7.6217098
3.44945 1.1358 7.9520502
3.4670501 1.12081 7.6329999
3.0903299 1.1641099 8.0603199
3.33793 1.14381 7.63661
3.10376 1.16745 8.1675596
3.08426 1.16491 8.1286898
3.4356799 1.11922 7.7393999
3.10269 1.16694 8.1339397
3.4505 1.11463 7.63308
3.35728 1.13972 7.6567101
3.4561 1.10905 7.6426601
3.0499599 1.16483 8.0083303
3.43647 1.13729 7.66185
3.05791 1.15662 7.9793501
3.0575199 1.16184 7.9889202
3.0416 1.1546 7.8572302
3.5074899 1.11115 7.8259902
3.0501101 1.16347 7.9606099
3.0567701 1.15807 7.9291201
3.2059901 1.13113 7.9721799
3.04809 1.16124 7.9210401
3.03337 1.15994 7.89324
3.0416601 1.1571701 7.8694401
3.04371 1.1550601 7.8593001
3.46296 1.1022 7.6478701
3.4361899 1.15861 7.9442801
3.36783 1.12201 7.61199
3.04055 1.15141 7.8136301
3.3431599 1.15433 7.6956701
3.03933 1.15405 7.8320398
3.0389199 1.15453 7.8031101
3.49489 1.10384 7.7659101
3.0414901 1.14799 7.7871599
3.0511899 1.1601 7.9126
3.47018 1.10118 7.7168999
3.47298 1.09612 7.65558
3.0360701 1.15012 7.77321
3.0242801 1.14797 7.7559299
3.48874 1.10483 7.7360401
3.51583 1.12744 8.0125904
3.51998 1.1381299 8.0313597
3.0221801 1.14992 7.74406
3.04054 1.1478699 7.7519598
3.4705801 1.09978 7.7200098
3.4624801 1.12253 7.6433101
3.0275199 1.1455899 7.7274699
3.5352499 1.13017 7.9695001
3.4289701 1.1391799 7.6845198
3.5592401 1.08363 7.90097
3.4154201 1.13175 7.7273698
3.3448801 1.14536 7.6421399
3.02174 1.15209 7.7502999
3.04373 1.15863 7.8854599
3.0768299 1.16943 8.1547003
3.0838799 1.17225 8.1556997
3.0876801 1.16053 8.0948896
3.07128 1.16076 8.0366402
3.07477 1.16424 8.0548296
3.0506499 1.16391 7.9667201
3.03706 1.17346 7.9665599
3.0399699 1.15414 7.8471398
3.0407701 1.14869 7.7957802
3.0436499 1.1590199 7.9039202
3.32651 1.15306 8.0752802
3.5129499 1.14976 8.0769501
3.50228 1.12567 7.9829502
3.5253999 1.13603 8.0440502
3.44965 1.1324199 7.8162999
3.37607 1.13537 7.71206
3.49968 1.10592 7.8080902
3.3538001 1.12533 7.6364799
3.34425 1.14686 7.6775398
3.4839499 1.11274 7.7855201
3.3513999 1.12576 7.6248798
3.35356 1.14001 7.6635499
3.39083 1.14486 7.72752
3.3660901 1.12901 7.6441302
3.3650999 1.13296 7.6525602
3.4873199 1.09245 7.7135501
3.4832699 1.11002 7.7512002
3.35866 1.1249 7.6054101
3.4883699 1.10162 7.7291002
3.4878099 1.0875 7.6856499
3.3415999 1.13422 7.5772099
3.3893199 1.099 7.5514798
3.5058401 1.07517 7.65762
3.38379 1.10725 7.5550299
3.3838301 1.1073101 7.5470099
3.50827 1.0905499 7.6291099
3.5090101 1.07337 7.5647302
3.04704 1.1614701 7.93501
3.3499401 1.1332999 7.6230202
3.0541999 1.16521 7.9944
3.0878201 1.17237 8.1811199
3.53514 1.0880899 7.8843498
3.0771201 1.16206 8.0811596
3.0635099 1.18145 8.1475201
3.08125 1.16599 8.08393
3.0683 1.1608 7.9798002
3.0403099 1.1647201 7.9337902
3.0504301 1.16458 7.9487
3.0334799 1.1625 7.89398
3.0190001 1.1546201 7.7998199
3.0173399 1.15458 7.7782602
3.0160201 1.14974 7.7195001
3.03303 1.15678 7.8304601
3.4997799 1.14648 7.9997001
3.42396 1.12901 7.7782602
3.4976799 1.09324 7.71983
3.5675199 1.12133 7.6819401
3.51209 1.13952 7.9745002
3.3719201 1.12613 7.64188
3.5483301 1.07915 7.87744
3.50596 1.11491 7.8225999
3.3696599 1.1412899 7.63976
3.4560201 1.10663 7.6737499
3.46387 1.10206 7.66292
3.47317 1.11136 7.6671801
3.46786 1.10469 7.6072898
3.4786799 1.11256 7.6111202
3.5090699 1.09349 7.6113501
3.35583 1.12972 7.61904
3.04087 1.15837 7.8903198
3.0796199 1.17493 8.19065
3.05919 1.1653301 7.9823799
3.0416901 1.14195 7.7428598
3.14642 1.17176 7.9127402
3.5067599 1.15333 8.0625401
3.3575301 1.1328 7.6470499
3.4998701 1.14346 7.97155
3.3466301 1.13033 7.5896001
3.4487801 1.10928 7.6944699
3.4865301 1.09894 7.7221098
3.48054 1.08836 7.6612301
3.4948699 1.09631 7.7069502
3.4709301 1.0945899 7.64117
3.48243 1.10759 7.6645598
3.4730201 1.11482 7.6584902
3.4665999 1.10349 7.59653
3.5187199 1.0637 7.5612898
3.50108 1.0997699 7.6336799
3.47995 1.1143 7.6163301
3.0736599 1.15817 8.0189304
3.48787 1.09618 7.6923099
3.57934 1.11386 7.6821399
3.0390501 1.1595 7.8892102
3.3640299 1.12975 7.6521201
3.0873499 1.15974 8.0750399
3.06231 1.161 8.0016203
3.03984 1.15754 7.87958
3.0467601 1.1649899 7.9376998
3.36847 1.1260999 7.6319399
3.37835 1.1119699 7.5664601
3.4584301 1.12076 7.7968998
3.4899199 1.0983599 7.7522502
3.4700699 1.0913 7.6616998
3.4555099 1.10607 7.6869502
3.5068099 1.08015 7.6926999
3.46242 1.12095 7.7509098
3.48597 1.1100399 7.7637901
3.44206 1.1154799 7.6381502
3.49192 1.10109 7.6398201
3.4969599 1.0985 7.6300602
3.57055 1.11498 7.6799898
3.5882699 1.1079 7.69033
3.49863 1.11711 7.8098898
3.4937999 1.0987 7.6475701
3.3602099 1.13449 7.6533499
3.09934 1.1674401 8.1644897
3.3766201 1.1291699 7.6726599
3.0664101 1.15697 7.9580898
3.3854599 1.10992 7.6071501
3.4879999 1.09523 7.6951799
3.38836 1.10873 7.61976
3.4955101 1.0953701 7.7200198
3.4905901 1.1044199 7.7424698
3.0769401 1.14894 7.9467702
3.0719399 1.17417 8.1155195
3.4438 1.13597 7.8137999
3.07443 1.17351 8.1301498
3.08851 1.1637 8.0876102
3.0915501 1.1547101 8.0388098
3.07251 1.15903 7.9815698
3.0567 1.15455 7.9066
3.0768099 1.1543 7.98558
3.04849 1.15203 7.8693099
3.0392301 1.16181 7.87358
3.0436001 1.15545 7.8618202
3.06951 1.13118 7.7620401
3.0111599 1.15464 7.7322302
3.40241 1.14478 8.0482903
3.0397401 1.159 7.8786898
3.08271 1.1554 8.0195303
3.05949 1.17327 7.66221
3.1293199 1.16711 7.6960502
3.5106001 1.14539 7.9849801
3.5729101 1.07267 7.9256701
3.50156 1.14519 8.0454102
3.51599 1.1410201 8.0310497
3.5188 1.14314 7.9791398
3.4488201 1.14226 7.94313
3.5069001 1.1447901 8.0168505
3.5112801 1.14347 7.9895601
2.9326899 1.19199 7.8106999
3.0678699 1.13782 7.7754798
3.36533 1.11037 7.5974798
3.36327 1.1221 7.6499
3.4735899 1.09333 7.6577802
3.47929 1.09314 7.60255
3.4813299 1.10568 7.6659698
3.4916101 1.1019 7.6376801
3.49984 1.09954 7.6111698
3.54702 1.05189 7.9233098
3.17082 1.14924 7.9723401
3.4179101 1.1212 7.7239699
3.45837 1.10338 7.6972699
3.50863 1.10331 7.8199902
3.46596 1.10049 7.6280398
3.4886701 1.09838 7.6494002
3.48686 1.10236 7.6479201
3.4990799 1.08007 7.5634398
3.4914401 1.10131 7.6132302
3.5793099 1.11113 7.6768098
3.5016 1.07979 7.5596399
3.36427 1.11119 7.5753002
3.41116 1.1765 7.9447799
3.4674201 1.09974 7.6735301
3.4679201 1.10588 7.6940899
3.46843 1.09815 7.6331501
3.5000801 1.07892 7.5647502
3.46926 1.10001 7.62713
3.3844199 1.13827 7.7258301
3.4193001 1.11939 7.7388701
3.4449501 1.10427 7.7337999
3.46925 1.09776 7.6556201
3.4772301 1.10491 7.67032
3.4853899 1.1179 7.7834702
3.3791201 1.1064301 7.6135998
3.5752699 1.11528 7.6786699
3.4921899 1.1005599 7.6117601
3.37116 1.10768 7.7649899
3.4237101 1.15864 7.86408
3.49665 1.10935 7.8063102
3.5181 1.1507601 8.0625896
3.51283 1.15052 8.0503502
3.4855001 1.15466 8.0374899
3.5290101 1.13995 8.0482702
3.5053201 1.14782 7.97118
3.0783 1.18406 8.1947002
3.0799 1.17075 8.11415
3.08549 1.16905 8.1067696
3.10342 1.16617 8.15487
3.08476 1.17685 8.1506395
3.0699799 1.18005 8.1442299
3.4993 1.10569 7.80374
3.5074699 1.10577 7.81849
3.42892 1.14463 7.8218999
3.47787 1.1149 7.74793
3.5762 1.10814 7.68575
3.5773001 1.11428 7.6797199
3.3385301 1.14615 7.7985902
3.3457201 1.14735 7.7918801
3.4154 1.1180201 7.74821
3.39481 1.13348 7.72686
3.4316299 1.12449 7.7846198
3.34218 1.14636 7.7912402
3.4227901 1.12669 7.7709298
3.3871701 1.13503 7.71947
3.48157 1.1084501 7.7448702
3.4157801 1.13708 7.7686501
3.4254601 1.1329401 7.79286
3.54866 1.11418 7.6881199
3.35587 1.13228 7.6477098
3.3638501 1.12985 7.6478901
3.3738699 1.1371599 7.7154799
3.3896401 1.13504 7.72541
3.0778601 1.13358 7.8314099
3.5115199 1.08297 7.5545802
3.5227799 1.07766 7.5640702
3.1097901 1.1134 7.7776999
3.51054 1.0791 7.5437899
2.9572001 1.20322 7.9851298
2.98526 1.18454 7.9437699
3.57722 1.11136 7.67589
3.5746601 1.10978 7.6852102
3.3398099 1.13564 7.7939501
3.3685701 1.1144 7.5945201
3.3501899 1.12957 7.6178699
3.3426299 1.13708 7.6379199
3.36484 1.12612 7.6442099
3.0392101 1.14876 7.8385701
3.3516901 1.1296 7.6251302
3.34886 1.12919 7.6168199
3.3557401 1.12344 7.6305399
3.3520801 1.13169 7.6351199
3.3450601 1.13399 7.6181102
3.3598001 1.12336 7.6434202
3.35639 1.13592 7.65587
3.4380901 1.0781699 7.4640698
3.0810499 1.20722 8.13029
3.4165599 1.14527 7.8208799
3.57183 1.11462 7.6793299
3.41804 1.1378599 7.7730799
3.4074299 1.14694 7.7898698
3.46857 1.11452 7.7438798
3.36639 1.11606 7.76829
3.3854799 1.13693 7.7269602
3.4075401 1.12702 7.7227001
3.3699901 1.13747 7.71451
3.3705201 1.11988 7.6495399
3.3572299 1.13165 7.6459699
3.34799 1.12657 7.6240602
3.3556099 1.12634 7.6457
3.50227 1.1446199 8.0009403
3.5023401 1.1463701 7.9757099
3.3728499 1.1574301 8.0524702
3.4298301 1.14963 7.8744001
3.49612 1.1183 7.8221202
3.0819099 1.1758 8.1770096
3.07424 1.17143 8.1156797
3.0811601 1.16515 8.1017599
3.4895999 1.10803 7.7592101
3.48453 1.11033 7.7578802
3.23526 1.11703 7.9565501
3.4714899 1.13569 7.8216801
3.5006199 1.10074 7.7806602
3.4992299 1.10369 7.7934999
3.4883001 1.11222 7.8071799
3.0537601 1.17909 8.1545601
3.23421 1.12701 7.9597201
3.2658701 1.1065201 7.9338999
3.4704101 1.10895 7.7065802
3.46749 1.10848 7.7019601
3.06815 1.1615601 8.0217199
3.4272201 1.13463 7.7817502
3.42064 1.1377701 7.7806401
3.0758901 1.16014 8.0431004
3.4644301 1.10035 7.67383
3.0530701 1.13925 7.7619801
3.4883101 1.10276 7.6248298
3.37132 1.1393501 7.7142701
3.49001 1.10338 7.6215301
3.4899499 1.10225 7.6193399
3.48523 1.10141 7.6184502
3.36884 1.13673 7.6967101
3.0719399 1.1360101 7.8171301
3.3850801 1.1181999 7.6514702
3.0422101 1.15262 7.8489499
3.0067899 1.16951 7.8759499
3.46878 1.10584 7.6063199
3.1262 1.10638 7.7751298
3.1169901 1.11659 7.7828898
2.98088 1.16625 7.7432098
3.3722899 1.117 7.6015801
3.3517301 1.13245 7.6243801
3.38363 1.1025701 7.59305
3.50336 1.07795 7.5546298
3.3680601 1.12826 7.6357698
3.49632 1.10613 7.8119798
3.50159 1.09944 7.75597
3.58777 1.11502 7.6897402
3.57814 1.11349 7.6790199
3.46806 1.15458 7.7569299
3.4885299 1.1020401 7.6528802
3.47139 1.1052901 7.6876702
3.4644401 1.099 7.6563001
3.45663 1.10479 7.7024899
3.47419 1.09259 7.6279898
3.5011201 1.09367 7.6268201
3.15275 1.09712 7.7595401
3.4635701 1.10438 7.6090398
3.0562501 1.14596 7.8688402
