# .PCD v0.7 - Point Cloud Data file format
VERSION 0.7
FIELDS x y z
SIZE 4 4 4
TYPE F F F
COUNT 1 1 1
WIDTH 83
HEIGHT 1
VIEWPOINT 0 0 0 1 0 0 0
POINTS 83
DATA ascii
1.2104 -1.69048 -0.35328001
1.25635 -1.65801 -0.29162499
1.22102 -1.6013401 -0.39071801
1.1601599 -1.58105 -0.38020799
1.17224 -1.64825 -0.34910199
1.03443 -1.55779 -0.369638
1.29405 -1.63588 -0.44069099
1.32434 -1.73703 -0.43020001
1.0683399 -1.57942 -0.40039101
1.2782201 -1.62918 -0.43701899
1.23288 -1.7281899 -0.38678199
0.99591601 -1.57414 -0.35628599
1.09203 -1.53661 -0.32445401
1.15508 -1.6753 -0.33223701
1.35227 -1.62069 -0.40659899
1.1555099 -1.3884799 -0.40408099
0.94698101 -1.54563 -0.33029199
1.23861 -1.69335 -0.34218201
0.99388999 -1.54238 -0.35997
1.2438999 -1.61481 -0.41088101
1.36884 -1.6290801 -0.416697
1.0405 -1.56181 -0.38765699
1.26342 -1.58733 -0.361866
1.27201 -1.63726 -0.418872
1.2258199 -1.6042 -0.41541499
1.01159 -1.59026 -0.37792701
1.2990201 -1.6813101 -0.36971301
1.06162 -1.57418 -0.39383101
1.3107899 -1.69232 -0.37539399
1.16043 -1.68801 -0.34302199
1.20759 -1.68335 -0.356047
0.98121297 -1.57919 -0.37311199
1.34193 -1.6385 -0.41407999
1.1693 -1.57426 -0.433797
1.3705699 -1.65519 -0.428451
1.05065 -1.5315599 -0.417422
1.32037 -1.6343499 -0.40076101
1.23746 -1.62704 -0.420481
1.1068701 -1.41445 -0.468611
1.22519 -1.69767 -0.37322101
1.25489 -1.62422 -0.42599499
1.00085 -1.57759 -0.349794
1.25665 -1.70776 -0.339867
1.00416 -1.55971 -0.38819599
1.0168999 -1.55327 -0.410281
1.04873 -1.55327 -0.42421299
1.24859 -1.62686 -0.40564799
0.75053197 -1.56709 -0.40919501
1.29023 -1.64249 -0.401564
0.94184297 -1.56093 -0.34787199
1.31185 -1.69191 -0.372917
1.23436 -1.62691 -0.41087601
1.09639 -1.5678101 -0.44241601
0.98098302 -1.56564 -0.34986499
1.1317101 -1.69889 -0.335491
1.07456 -1.5428801 -0.42000201
0.73733598 -1.5862 -0.425257
1.1885 -1.6784 -0.33636099
1.10333 -1.5515701 -0.423953
1.37072 -1.64399 -0.41058201
1.17338 -1.66921 -0.32832101
1.25089 -1.61949 -0.402605
1.2205499 -1.68747 -0.35833299
1.1752 -1.40933 -0.44897899
1.26412 -1.70087 -0.32884699
1.20145 -1.6545 -0.35874799
1.04254 -1.54414 -0.40779099
1.11466 -1.56434 -0.43633199
1.15115 -1.69349 -0.34006599
1.07112 -1.6387399 -0.38345701
0.99804097 -1.57567 -0.35731801
1.01993 -1.54865 -0.45589399
1.21446 -1.6978199 -0.36219499
1.24648 -1.6289099 -0.404695
1.26499 -1.63667 -0.404351
1.17375 -1.68364 -0.341508
1.02706 -1.56427 -0.38947901
1.3533 -1.65093 -0.422887
1.3217 -1.64957 -0.427349
1.21557 -1.69153 -0.353609
1.23751 -1.62567 -0.40640801
1.2179101 -1.59273 -0.43518099
1.31745 -1.65124 -0.420746
