# .PCD v0.7 - Point Cloud Data file format
VERSION 0.7
FIELDS x y z
SIZE 4 4 4
TYPE F F F
COUNT 1 1 1
WIDTH 66
HEIGHT 1
VIEWPOINT 0 0 0 1 0 0 0
POINTS 66
DATA ascii
-0.54201198 1.03645 2.2832
-0.60795498 1.04757 2.2855
-0.51896501 1.0431 2.29737
-0.55532801 1.04561 2.2962501
-0.55388999 1.05809 2.2995
-0.52618498 1.04237 2.30283
-0.60053498 1.0439399 2.2883999
-0.57587999 1.0431401 2.2862201
-0.53633898 1.0444601 2.3092999
-0.55051202 1.0476201 2.30425
-0.57652998 1.04362 2.2838399
-0.55183703 1.04559 2.29336
-0.52077597 1.03851 2.2932601
-0.54336298 1.04541 2.29652
-0.59989899 1.04337 2.2872701
-0.57273501 1.0446399 2.2914701
-0.54715103 1.05037 2.2913499
-0.548177 1.0459501 2.29422
-0.51283997 1.03915 2.29111
-0.519849 1.04536 2.2915001
-0.53210402 1.04206 2.3011301
-0.57812399 1.05057 2.2957399
-0.60464299 1.03503 2.2665601
-0.56345701 1.02507 2.2498901
-0.56877702 1.02714 2.2393401
-0.53948301 1.02405 2.25559
-0.55896503 1.02368 2.2399199
-0.52751303 1.0138299 2.22491
-0.554914 1.0308 2.25999
-0.51376498 1.02276 2.2474899
-0.59084302 1.05229 2.2884901
-0.56455898 1.02321 2.22528
-0.55640399 1.05396 2.2776201
-0.54080802 1.03405 2.27301
-0.60661101 1.05177 2.3052399
-0.55844003 1.04398 2.28879
-0.522057 1.03471 2.25471
-0.51801997 1.03353 2.27864
-0.54573798 1.04008 2.2807
-0.60382903 1.05159 2.28177
-0.54458398 1.04286 2.28705
-0.59340799 1.05142 2.2829399
-0.52710903 1.04032 2.28863
-0.50747102 1.03907 2.2843201
-0.52527303 1.0437 2.2823601
-0.52179998 1.04154 2.2785201
-0.49387401 1.04145 2.2865901
-0.56895602 1.04758 2.2941999
-0.57458699 1.04996 2.2885599
-0.563052 1.04869 2.2853899
-0.51710498 1.04948 2.27161
-0.54425102 1.04598 2.2890699
-0.53784001 1.03352 2.2908399
-0.507626 1.04204 2.2827401
-0.54510301 1.04412 2.2885799
-0.54777497 1.04406 2.2880599
-0.53594899 1.03839 2.2808001
-0.53213102 1.03802 2.2811601
-0.56294203 1.04826 2.2890699
-0.52832001 1.0407701 2.2772901
-0.54508901 1.03317 2.21979
-0.53185099 1.03929 2.2848201
-0.52716202 1.03834 2.2829199
-0.51002502 1.02081 2.2628601
-0.545596 1.05633 2.2932799
-0.52803701 1.0065 2.28249
