# .PCD v0.7 - Point Cloud Data file format
VERSION 0.7
FIELDS x y z
SIZE 4 4 4
TYPE F F F
COUNT 1 1 1
WIDTH 87
HEIGHT 1
VIEWPOINT 0 0 0 1 0 0 0
POINTS 87
DATA ascii
7.6656699 -1.25977 6.40312
7.6258001 -1.2658401 6.3519402
7.6529698 -1.29524 6.1519198
7.7149301 -1.20286 6.0908198
7.6529598 -1.30129 6.0795898
7.7004199 -1.18704 6.09973
7.6620002 -1.2966 6.1475201
7.6883898 -1.30413 6.2297602
7.69068 -1.3207 6.0940499
7.73071 -1.19892 6.1220698
7.71065 -1.30791 6.3262
7.7000899 -1.31708 6.1502299
7.7460499 -1.31806 6.18431
7.7107401 -1.3095 6.3116398
7.6965699 -1.33261 5.9910102
7.6994801 -1.33252 6.0169702
7.6954498 -1.32875 6.0416002
7.6964698 -1.3264 6.08675
7.7049398 -1.32901 6.1177101
7.7259998 -1.31568 6.0992498
7.7100701 -1.32854 6.16854
7.7049599 -1.32057 6.20223
7.7088699 -1.31558 6.2627902
7.7126899 -1.31603 6.2869
7.7115002 -1.33522 6.0317502
7.7141399 -1.32909 6.0973401
7.7312999 -1.31836 6.1160498
7.7140002 -1.32178 6.18576
7.74827 -1.19214 6.1676898
7.7480001 -1.1966799 6.11906
7.7118301 -1.3214099 6.15062
7.7147598 -1.34615 6.007
7.7108598 -1.32032 6.16854
7.74192 -1.32068 6.125
7.70785 -1.31501 6.2095399
7.7163601 -1.33816 6.0288
7.71455 -1.32487 6.1420298
7.7156901 -1.33842 6.06567
7.70855 -1.3207 6.1815
7.7231998 -1.31815 6.31674
7.70893 -1.3204401 6.1620598
7.7090802 -1.3125 6.2094002
7.71101 -1.3162 6.19309
7.7389002 -1.31092 6.1987801
7.7175298 -1.31033 6.3007102
7.7164302 -1.30742 6.33389
7.7116499 -1.3222899 6.1543198
7.7207699 -1.3358901 6.0866098
7.7101798 -1.31981 6.1291599
7.7147498 -1.32566 6.1164398
7.7150302 -1.31204 6.2525601
7.7197399 -1.33816 6.0595102
7.72156 -1.32169 6.22298
7.7238598 -1.32578 6.19735
7.7452202 -1.20755 6.1230502
7.7316999 -1.3223701 6.3025398
7.7248902 -1.3318501 6.1462798
7.7220702 -1.3356 6.0959802
7.7314901 -1.30997 6.1681499
7.7170701 -1.3066601 6.3218999
7.7154298 -1.3184 6.21491
7.7132401 -1.31589 6.2093801
7.7409201 -1.19956 6.1167202
7.7338901 -1.1867599 6.1608601
7.7415099 -1.1735801 6.18787
7.74578 -1.20955 6.1142602
7.7309299 -1.1829 6.1560001
7.7466998 -1.1797 6.1898999
7.7484798 -1.19856 6.1233301
7.7423401 -1.19152 6.1134801
7.7631502 -1.06529 5.99471
7.7625098 -1.18428 6.1920099
7.7444401 -1.19662 6.1006298
7.7137899 -1.32897 6.0974798
7.71138 -1.3184201 6.17206
7.7392802 -1.32707 6.2978702
7.7374401 -1.32972 6.2672801
7.7600899 -1.06828 5.9913101
7.7598 -1.05838 5.9869699
7.7646399 -1.06643 5.9917898
7.7218499 -1.34259 6.02776
7.7224898 -1.32287 6.2354002
7.7228298 -1.32866 6.1778402
7.7217898 -1.3321199 6.1354499
7.7368498 -1.32701 6.2849202
7.7348399 -1.32728 6.2691798
7.7333798 -1.31839 6.0994401
