# .PCD v0.7 - Point Cloud Data file format
VERSION 0.7
FIELDS x y z
SIZE 4 4 4
TYPE F F F
COUNT 1 1 1
WIDTH 1629
HEIGHT 1
VIEWPOINT 0 0 0 1 0 0 0
POINTS 1629
DATA ascii
0.257052 1.02284 2.5962701
0.52127999 1.03223 2.60782
0.43272999 1.00657 2.60112
0.54725599 0.979783 2.60689
0.63024801 0.97337401 2.5980301
0.79610401 0.94146198 2.58623
0.47599 0.99396402 2.60288
0.53425598 1.0299 2.6072099
0.77530098 1.00352 2.60954
0.321969 1.01261 2.5989299
0.52139598 0.98725599 2.59759
0.80790198 0.95232397 2.60059
0.70539701 0.97671801 2.60533
0.35185599 1.00437 2.6013801
0.54514098 0.98219901 2.6067801
0.63638401 0.98044401 2.6048999
0.85128301 0.950275 2.6092701
0.14082301 1.0403399 2.60199
0.42429 1.0048 2.60444
0.266013 1.0237 2.60127
0.30676299 1.0228601 2.60098
0.60306197 0.986992 2.60923
0.348061 1.01499 2.6025701
0.53005499 0.96889299 2.61325
0.85935801 0.95464402 2.6041801
0.69519299 0.96947002 2.6073999
0.66695201 1.01924 2.61198
0.64045697 0.97444803 2.6013401
0.82799298 0.95041603 2.60182
0.82167798 0.94301599 2.6026499
0.69560897 0.98283398 2.62551
0.13934401 1.0619299 2.6048801
0.19293199 1.0290999 2.6041
0.192727 1.0349801 2.59863
0.29986501 1.0592099 2.60553
0.29771399 1.02145 2.6013501
0.41611099 1.00849 2.60343
0.189595 1.06835 2.5968699
0.155875 1.03451 2.5971301
0.27594301 1.02153 2.6006899
0.47392201 1.03659 2.6078801
0.367066 1.00855 2.60253
0.57920599 0.98666102 2.6103799
0.749834 1.00686 2.6138201
0.48253 1.03771 2.60742
0.219293 1.02571 2.5996599
0.68957102 0.97255301 2.61076
0.13124999 1.0332299 2.5825701
0.134968 1.04546 2.58848
0.186662 1.08507 2.6141601
0.14971299 1.06576 2.6103699
0.79922599 1.0081199 2.6001401
0.90025902 -0.301707 2.7632401
0.92561799 -0.17564701 2.76302
0.97094899 0.91984397 2.5615699
0.57174599 0.98038203 2.5759301
0.565795 1.03549 2.6026101
0.115804 1.05483 2.5831599
0.95379299 0.93871897 2.5799799
0.94603699 -0.108025 2.7690101
0.569911 0.98172498 2.58604
0.45573199 0.99899 2.5841
0.70310801 1.0305901 2.6131401
0.295252 1.0160201 2.5868499
0.53633499 1.04518 2.6091001
0.88883799 0.93799198 2.5934501
0.98859698 -0.027096801 2.7801499
0.86923999 0.94465703 2.59271
0.85626101 0.95881099 2.6020401
0.88793099 0.956545 2.5920801
0.70747501 0.97213501 2.5974901
0.45048201 1.00477 2.60408
0.47711599 1.00537 2.6018801
0.537458 1.0430599 2.6057999
0.223627 1.02499 2.5825601
0.15299501 1.03416 2.5901501
0.13047899 1.06745 2.5987
0.213459 1.09106 2.6159201
0.29040599 1.02198 2.59073
0.408182 1.0092601 2.5945599
0.80267102 0.96114099 2.5966699
0.56316 0.98702902 2.5896101
0.34439799 1.00491 2.58921
0.37160701 1.00678 2.59006
0.35892099 1.01535 2.58883
0.27198899 1.02036 2.5892501
0.118487 1.05878 2.5881
0.193396 1.03675 2.59284
0.85734397 0.95325798 2.5964501
0.81375003 0.949588 2.58637
0.62243199 0.98143703 2.5895
0.460439 1.00135 2.58693
0.32594499 1.01318 2.58568
0.59706497 1.04044 2.61655
0.514332 1.04208 2.6083801
0.242497 1.03174 2.59412
0.14763699 1.07399 2.5975699
0.19771001 1.07482 2.5943301
0.57332301 0.98185098 2.5948701
0.50354302 0.99477398 2.5910399
0.32227099 1.0209399 2.5890701
0.145878 1.03751 2.5871201
0.15259799 1.0364701 2.58465
0.316984 1.06189 2.6010301
0.35170701 1.06431 2.6024101
0.19174001 1.03343 2.59129
0.888502 0.96152198 2.58512
0.601448 0.97813398 2.5919001
0.56488597 0.988123 2.59532
0.84216398 0.99936998 2.6055801
0.73360902 1.01307 2.60219
0.36450201 1.01001 2.5818701
0.213846 1.02404 2.5835199
0.179829 1.03653 2.57851
0.32064599 1.06633 2.60658
0.139116 1.07142 2.60969
0.46865201 0.99933398 2.58847
0.81709301 0.95237797 2.58676
0.98067999 0.92484897 2.58163
0.87797701 0.90504003 2.5703001
0.941122 0.92741901 2.5791099
0.82772303 0.95068598 2.5862601
0.89752799 0.96814001 2.5869901
0.471495 0.987284 2.5868599
0.54111201 0.98397601 2.58236
0.67177999 1.01977 2.59794
0.174476 1.0217 2.5774901
0.78505498 1.00267 2.59852
0.88808101 0.93045002 2.5741601
0.53714198 0.99050301 2.5806
0.776815 1.01328 2.6077499
0.164443 1.03125 2.5805099
0.24133299 1.07338 2.6027901
0.209203 1.08412 2.60779
0.446381 1.00138 2.58672
0.60114998 0.97839898 2.5861199
0.82068801 0.944924 2.58371
0.91967702 0.91669202 2.57988
0.98242599 0.92814499 2.58954
0.82351899 0.99865502 2.6020501
0.56236899 0.98047698 2.5841899
0.35161901 1.01047 2.5880201
0.117932 1.06458 2.5889001
0.15114 1.07225 2.59604
0.189989 1.02584 2.5807199
0.133313 1.08127 2.6162601
0.313416 1.05636 2.5928099
0.185486 1.02956 2.5811801
0.24035101 1.02356 2.5819399
0.32081601 1.01403 2.5838399
0.51213998 1.03065 2.5924201
0.61551702 0.97721601 2.58707
0.81662297 1.00077 2.59939
0.83369303 0.953776 2.5875101
0.86239201 0.94874102 2.5878601
0.117246 1.0708801 2.6038201
0.83925998 0.94885403 2.5892501
0.179243 1.05053 2.58097
0.125144 1.0389301 2.58182
0.96136802 0.92899603 2.5896001
0.343227 1.0078599 2.58375
0.60017198 1.04018 2.5998499
0.251174 1.02124 2.5820999
0.453107 0.99600798 2.5852699
0.58180302 0.97817898 2.5866899
0.77159202 0.95849901 2.5852201
0.23863301 1.0209 2.5813799
0.54738498 0.97953802 2.5873401
0.98130298 0.92688 2.5883801
0.51227301 0.98717803 2.5829
0.136353 1.074 2.5961499
0.47005001 1.02268 2.5873599
0.213053 1.0842201 2.5895
0.128509 1.03746 2.58389
0.260151 1.03175 2.5801401
0.21763299 1.02539 2.58196
0.23114499 1.02227 2.5840001
0.87236601 0.95308501 2.5877099
0.33004099 1.01179 2.5843599
0.77594602 0.95714402 2.5899999
0.59546101 1.04837 2.5954299
0.62752801 0.97427899 2.58952
0.523148 0.98736101 2.5876501
0.86348999 0.94597501 2.5913501
0.76045299 0.952214 2.5889499
0.93304098 0.920205 2.5846801
0.88797897 0.940301 2.5868599
0.90395099 0.93137199 2.5871401
0.349388 1.05369 2.59373
0.61113697 1.02632 2.5985799
0.44163701 1.00227 2.5870399
0.222717 1.02601 2.5849299
0.373593 1.05615 2.59339
0.29015201 1.01827 2.58603
0.51584202 0.993752 2.5882001
0.12718 1.06766 2.59167
0.16599301 1.0317 2.5792201
0.55669898 1.03225 2.5947499
0.48761401 0.99243402 2.5865901
0.80229998 0.95402801 2.5864301
0.59831399 0.979909 2.5859101
0.36351499 1.01296 2.5913799
0.345503 1.0095201 2.7065301
0.57853299 0.94623297 2.68929
0.48016399 0.95373601 2.6845601
0.500305 0.96749997 2.7009699
0.73781103 0.90508097 2.6765499
0.943066 0.89228302 2.6819699
0.74308199 0.92463499 2.68859
1.04478 0.93379402 2.7158501
0.88484198 -0.42778 2.8412001
0.88409001 -0.407978 2.8330901
0.88875997 -0.369369 2.82845
0.92578202 -0.31778899 2.8204999
0.88318098 -0.31771901 2.83059
0.93833101 -0.248311 2.8123701
0.90148503 -0.21886 2.81918
0.91455501 -0.18736599 2.80913
0.91463298 -0.15983599 2.8087499
0.98559701 0.26161501 2.7676101
0.987813 0.45278701 2.7504301
0.86725199 0.96586198 2.7081299
0.999062 0.55760199 2.73979
0.99904197 0.57554102 2.7372999
0.897843 0.934017 2.7104299
0.42114499 1.01647 2.70257
0.536084 0.97692001 2.7074699
0.5801 0.98256397 2.6951301
0.74512798 0.95313603 2.7144799
0.82455301 0.933465 2.70344
0.43041301 0.99203902 2.7120099
0.30087399 1.0249799 2.7214
1.01051 0.45324799 2.7495401
0.87823999 -0.43746701 2.83902
0.88278699 -0.352806 2.83325
0.92539001 -0.31996399 2.81897
0.92688298 -0.28758499 2.8166201
0.885337 -0.27359301 2.8306701
0.91297901 -0.126619 2.8106899
0.921085 -0.0915225 2.8046899
1.18661 0.91037798 2.7198901
0.92760402 -0.0560643 2.7995
1.13719 0.94043303 2.71312
0.93317598 -0.024817999 2.79409
0.93570799 -0.0113012 2.7948999
0.95881802 0.0084461896 2.7900801
0.93921 0.0205884 2.79055
1.0481499 0.92227298 2.71749
0.95466501 0.14624999 2.77911
0.97246301 0.161048 2.7765801
0.95746303 0.189821 2.77648
0.963153 0.208113 2.7725799
1.04759 0.91654599 2.71698
1.04825 0.91070801 2.7116001
0.96701801 0.277684 2.76913
0.97447002 0.316347 2.76332
0.97507602 0.34219199 2.7627499
1.00457 0.35055399 2.7583001
0.92808199 0.98044097 2.72017
0.97372299 0.396072 2.7588999
0.98849303 0.482012 2.7479501
0.99708599 0.51081997 2.74402
0.99377197 0.55771899 2.7435601
1.00571 0.60243499 2.73611
0.504592 0.97467101 2.7042501
1.01796 0.68218398 2.72891
0.75458002 0.956599 2.71192
0.85114801 0.93764001 2.70821
1.03143 0.79378003 2.7165101
0.92129701 0.92738098 2.7067101
0.93759501 0.93277001 2.7109799
0.69305199 0.94473398 2.70315
0.58231902 0.97687697 2.7120399
1.01861 0.50960898 2.7425699
0.88343799 -0.40514001 2.8346601
0.96716899 0.288017 2.7665901
0.94791299 -0.158227 2.80194
1.33641 0.88301098 2.71241
1.31675 0.88410097 2.7112601
0.93835002 0.0077416198 2.79263
1.2677701 0.88487101 2.70927
1.24498 0.88216102 2.70435
0.95328301 -0.100677 2.7948101
1.07792 0.91995603 2.7146101
0.93498898 -0.26537299 2.8102901
0.91185498 -0.177808 2.8115799
0.920632 -0.124049 2.8032401
0.92444903 -0.102945 2.8038099
0.95972401 -0.067799702 2.7920401
0.964858 -0.026209399 2.7876799
0.94432402 0.055550601 2.7882299
0.94792801 0.077275999 2.7853999
0.948511 0.095238902 2.78371
0.95542902 0.116369 2.7790101
0.97441202 0.111823 2.7753999
0.96674502 0.224833 2.77161
0.965707 0.23471101 2.76966
1.14793 0.90410203 2.70997
0.971991 0.30976501 2.7641499
0.98438197 0.36382601 2.75664
0.98545098 0.408555 2.75371
0.99806702 0.95248902 2.71332
0.99778098 0.52631903 2.74176
1.00167 0.53454202 2.7407601
1.02902 0.55968398 2.7339301
0.365347 1.00629 2.7199099
1.00744 0.58970499 2.73629
0.46822301 0.97975802 2.7035899
0.52126598 0.98178399 2.7100799
1.02494 0.65990502 2.7237999
0.69304103 0.96605003 2.7149899
0.80087298 0.94859499 2.7179699
0.87344801 0.94025499 2.7165201
1.0505199 0.79011399 2.71772
0.89864802 0.93209201 2.7099299
1.02115 0.89045697 2.69696
1.05088 0.87444198 2.69436
1.27944 0.88593203 2.7096701
1.0536799 0.90524101 2.7043099
0.96090198 0.921018 2.7049201
0.97745401 0.165534 2.7732501
0.681795 0.99014699 2.7104001
0.677517 0.97082698 2.7158101
0.58367997 0.99944401 2.7016499
0.59582198 0.973764 2.71257
1.03023 0.574512 2.7349801
1.0035599 0.51238298 2.74121
0.99876201 0.47869 2.7436299
0.96921903 0.29126999 2.7671299
0.93523997 -0.28480601 2.8108101
0.92451602 -0.0038352699 2.8011799
1.3133399 0.87005198 2.6990199
0.89266098 -0.33092999 2.82743
0.89208198 -0.30166101 2.82794
0.89679998 -0.26796401 2.8255501
1.1838599 0.88266599 2.6993799
1.15642 0.89726597 2.7065201
0.92340398 -0.139185 2.80708
1.21946 0.91621798 2.70454
0.95503598 -0.117538 2.7928801
0.924793 -0.096427001 2.8043699
0.96066701 -0.106376 2.79057
0.97855401 0.036092199 2.7757299
1.23391 0.87441802 2.6979799
0.95308 0.154581 2.7801199
0.977723 0.101669 2.77332
0.95213097 0.137641 2.7823601
0.915645 -0.17365199 2.8113799
0.97135597 0.29501399 2.7626801
0.96244299 0.195464 2.77527
1.01004 0.36066601 2.75001
0.98813897 0.40381101 2.7529099
0.99459797 0.433837 2.7485299
1.02486 0.44602901 2.7393601
1.0140001 0.579485 2.7331901
1.03426 0.59567899 2.7304699
0.494968 1.02391 2.7171099
1.0280401 0.63089401 2.72282
0.64718199 0.99071801 2.7037699
0.73160398 0.95720702 2.7115099
0.73580003 0.96032 2.71474
1.03988 0.747352 2.7119501
1.04336 0.77102101 2.71209
0.90183699 0.91027898 2.69508
0.83178002 0.99106097 2.7111101
1.05951 0.83215398 2.70859
1.00012 0.90231299 2.69576
1.02179 0.893143 2.6918399
1.0034 0.939358 2.7009001
1.04845 0.94901699 2.7131701
1.1351399 0.89487702 2.7046199
1.2733999 0.87443501 2.69837
1.2566 0.88007301 2.70331
1.0629801 0.90138 2.7014599
0.96682602 0.91017401 2.7010601
0.61782998 0.976358 2.7205
0.54856598 0.97016197 2.7049301
1.0178 0.58201402 2.7313099
0.44333899 0.975546 2.69963
1.01226 0.56047899 2.7360301
0.93794 0.022719 2.7925
0.97760499 0.343086 2.76019
0.972049 0.29483601 2.7657001
0.93673599 0.021412799 2.7941101
0.92803198 -0.070988402 2.80165
0.90349603 -0.407482 2.8217001
0.910321 -0.35681599 2.8176899
0.91743797 -0.196538 2.8121099
1.33629 0.870435 2.6798501
0.92232502 -0.16043399 2.8071001
1.32417 0.844859 2.68208
1.26928 0.90267003 2.69714
0.92742699 -0.120108 2.8023901
0.94109702 0.068833701 2.7903099
0.94385701 0.113325 2.7870901
0.99552101 0.0733665 2.76507
0.917862 -0.145642 2.80879
1.00202 0.20041101 2.7565601
0.96964401 0.24562 2.76897
0.99932301 0.24344 2.75664
0.97687602 0.28661901 2.7622001
0.97939801 0.352997 2.76106
0.99177402 0.42540699 2.7508199
0.99443698 0.47129199 2.74703
1.03391 0.509646 2.7305801
1.01068 0.53399599 2.73668
0.321376 1.04101 2.71175
0.95949 0.171848 2.7771499
1.0334899 0.67855799 2.7198999
1.0353 0.687581 2.7161
1.0425 0.75517899 2.7112501
1.04474 0.76938498 2.7076399
0.929416 0.939641 2.7156501
1.04414 0.86975199 2.6912
1.02977 0.89001602 2.6894801
0.91057098 -0.229113 2.8157499
1.0922101 0.91714901 2.7165699
1.1454999 0.87157601 2.6872001
1.14526 0.91372102 2.6952
1.17515 0.88842398 2.7016101
1.19638 0.90039301 2.6930201
1.2466 0.88887101 2.68873
1.30633 0.84116501 2.6794801
1.23422 0.859721 2.6870301
1.19056 0.87585598 2.6972499
1.01898 0.957883 2.7054999
1.0554301 0.86422199 2.6881399
0.89361101 0.91879499 2.6981399
0.80682999 0.93799698 2.7066
0.63892102 0.959598 2.6851299
0.59066999 0.97397202 2.71222
1.03873 0.57398802 2.7274699
1.00257 0.52445501 2.7405701
0.90855801 -0.37353599 2.81969
1.0153199 0.327683 2.7460599
1.0098 0.27789101 2.7506001
0.90685099 -0.299611 2.81849
0.945737 -0.284958 2.80251
0.91099602 -0.121227 2.81585
0.89456201 -0.41320699 2.82952
0.88985598 -0.400745 2.83113
0.89905202 -0.36119699 2.82548
1.0139199 0.42092401 2.7470901
0.89816302 -0.30859101 2.8254001
0.92860901 -0.29023001 2.81181
0.89693099 -0.28357399 2.8257
0.94017398 -0.264276 2.8062401
0.99909502 0.53815502 2.7441499
0.89619702 -0.224628 2.8259101
0.32349601 0.980501 2.6877501
1.00687 0.57953101 2.7386999
1.38799 0.88808 2.72295
0.90599197 -0.101387 2.8179901
1.3909301 0.86404699 2.70421
0.495179 0.969244 2.70244
0.52216101 0.98347998 2.7163899
0.944336 -0.217963 2.8016801
0.56350499 1.0103199 2.7358201
0.92299199 -0.0224145 2.8069501
1.02343 0.684156 2.7248099
0.92886299 0.0095423302 2.8024499
0.919155 -0.0502747 2.81042
0.92391199 0.0310679 2.8045199
0.83378798 0.97510999 2.73546
0.89085102 0.95712698 2.72702
1.35109 0.88719398 2.6927299
0.98664999 0.032373 2.7671101
0.91764897 0.053268898 2.8075299
1.2065099 0.92147899 2.7309301
0.95309103 0.19221599 2.7816
0.98827702 0.084961101 2.76809
1.05335 0.91921902 2.7135401
0.94628298 0.16336399 2.7872901
1.32429 0.88514102 2.7141399
0.95533103 0.236636 2.78071
1.14843 0.928285 2.7304101
0.959216 0.29022801 2.7755101
0.90386403 -0.26827401 2.82235
1.28751 0.89886099 2.7212601
0.97328597 0.34063599 2.7669001
0.97244102 0.35990199 2.7653601
1.33989 0.89389998 2.7226601
1.15934 0.92125601 2.72595
0.97322798 0.39326999 2.76406
1.01167 0.402832 2.74681
0.96394002 0.29766801 2.77301
0.99213099 0.47669399 2.75121
1.1975501 0.92124099 2.72983
1.24502 0.90064299 2.7183399
0.30432999 1.02194 2.72542
0.452016 0.98294902 2.70906
1.0153199 0.61544901 2.73226
1.027 0.70842302 2.7204199
1.03153 0.73794103 2.72014
1.0479701 0.73526502 2.7176299
1.04961 0.87493199 2.70327
1.03785 0.79390198 2.71243
1.05682 0.79972798 2.71351
0.91186398 0.93418998 2.6684699
1.05755 0.80442703 2.7091801
0.96638399 0.33864701 2.76737
1.12519 0.89002597 2.70169
0.74545902 0.95773399 2.7179699
0.89079702 -0.50445497 2.8333399
1.00937 0.37261099 2.75056
0.89601099 -0.42566299 2.83075
0.92407101 -0.029229101 2.8064599
0.93398201 -0.27311 2.81021
1.59165 0.820171 2.69115
0.89677203 -0.33360901 2.8287101
0.89784098 -0.20489299 2.82549
0.95139998 -0.15955301 2.79688
1.01929 0.56627297 2.7321701
0.95550698 -0.12063 2.7938199
0.95986599 -0.112832 2.79125
0.91578698 -0.095629796 2.81478
0.92014199 -0.066909596 2.8099599
0.896487 -0.39786899 2.8296001
1.55378 0.85238898 2.71223
0.978392 0.0155174 2.77807
0.91070497 -0.172548 2.8190401
0.93185198 0.066065401 2.8015101
1.48815 0.84762597 2.70609
1.53626 0.817662 2.6844201
1.04974 0.77442402 2.7084601
0.98962802 0.116094 2.76685
0.982656 0.140058 2.7702501
0.90149897 -0.220126 2.82531
0.96006399 0.225132 2.7774601
0.95095903 0.89540201 2.68448
0.99210203 0.229082 2.76315
0.97137302 0.27424699 2.7690699
0.99932402 0.28850901 2.75916
0.97871703 0.325703 2.76386
1.00409 0.31608701 2.75845
1.00779 0.507909 2.7401299
1.01261 0.54277498 2.7348101
1.03763 0.627909 2.72981
0.67323703 0.952959 2.7056
0.69486803 0.985309 2.70857
1.04865 0.76924199 2.7087801
1.08951 0.92622399 2.7259099
1.1011 0.91654801 2.70574
0.70187902 0.95687997 2.71051
1.15564 0.92418498 2.7024
1.3103 0.86524802 2.6985199
1.32669 0.862257 2.69701
1.4224 0.836528 2.68839
0.85447401 0.92953902 2.7047601
1.5527101 0.82193297 2.68837
1.49543 0.83777499 2.6925099
1.4602799 0.83714598 2.6905
1.40624 0.828655 2.67821
1.06301 0.900985 2.70489
0.953758 0.189255 2.7834001
0.465785 0.97229397 2.6805999
0.95076799 0.13993999 2.7882199
0.91095299 -0.41450199 2.82865
0.89928901 -0.38360801 2.82901
0.92251301 -0.33320901 2.8199899
0.90275902 -0.30851901 2.8260701
0.910927 -0.183327 2.81989
1.01807 0.590437 2.7316501
1.4579999 0.89943802 2.71857
0.90134799 -0.27943501 2.8260901
0.94261599 -0.200185 2.8054399
0.94262499 0.114033 2.7920201
0.966869 -0.060293801 2.7874899
0.90456498 -0.24545 2.82267
0.54280198 0.957771 2.6961
0.94856501 0.0856511 2.78931
0.94645798 0.0203605 2.7939999
0.98686498 0.17660999 2.76809
0.99321097 0.197971 2.76525
1.05667 0.78882998 2.7146399
1.53887 0.84513003 2.7036099
0.97812402 0.33368701 2.7653401
0.93157703 -0.016650399 2.8020699
1.00324 0.494313 2.7451301
1.02306 0.50013 2.7411599
1.03328 0.66646802 2.72138
1.04032 0.66929501 2.7274699
0.65434301 0.95358002 2.7100599
1.04462 0.69613999 2.72668
0.86191702 0.93291998 2.7081699
1.57065 0.85275102 2.71543
1.37122 0.84469098 2.6926301
1.22878 0.910739 2.7091899
1.05795 0.928765 2.7263401
0.899867 -0.35203901 2.8278401
1.05308 0.78276402 2.70541
0.938416 -0.21931399 2.8066599
0.91718698 -0.139688 2.8148701
1.02268 0.61047 2.72996
0.92132002 -0.099350497 2.8111701
0.95976299 0.193606 2.78146
1.14612 0.90078503 2.71191
0.97514898 0.28983399 2.7686
1.03705 0.625301 2.73142
1.00722 0.55185902 2.7364099
0.89415997 -0.299007 2.8297999
1.04234 0.72485 2.7140901
0.98754603 0.38035801 2.75719
0.89681602 -0.40312001 2.8307099
1.02327 0.51506501 2.74089
0.91950798 -0.371402 2.8246
0.90008402 -0.35922301 2.8294499
0.93063802 -0.30566299 2.81967
1.00438 0.302077 2.75999
0.95258498 -0.073095597 2.7985201
1.02399 0.45564699 2.74511
0.999246 0.318712 2.76069
0.936064 -0.096828803 2.7992001
1.58828 0.85155398 2.6932001
0.93137401 -0.104646 2.8022201
1.63153 0.84479702 2.69154
0.95652401 -0.041487198 2.7941899
0.96628302 -0.0097217197 2.79003
0.96744502 -0.0057313698 2.7895701
1.61324 0.85196602 2.6968
1.55709 0.83529001 2.6960199
0.92723501 -0.135782 2.8068199
0.98972398 0.220989 2.7678001
0.91462398 -0.182166 2.81669
0.45243099 0.98497897 2.7069099
0.96638602 0.0148462 2.7880099
1.0114599 0.34834301 2.7541101
1.02045 0.47327501 2.7442501
0.50068498 0.97234201 2.7061801
0.79802698 0.93520802 2.7077701
1.03212 0.67342901 2.7210901
0.86127901 0.96504599 2.7107201
0.93692899 -0.235054 2.8096299
0.94575202 0.95533401 2.7074001
1.03575 0.68901998 2.7198501
0.90634501 -0.278427 2.8257301
1.46541 0.82654601 2.7030599
0.94476002 -0.057464201 2.7916901
1.50049 0.873905 2.6990099
1.5237401 0.84282202 2.70188
1.63079 0.83615297 2.70822
1.61278 0.83770603 2.7066901
1.43441 0.84525001 2.6968999
1.38353 0.85716403 2.7021401
1.35394 0.88204801 2.6944101
1.29672 0.86205298 2.6973901
0.89432299 -0.42317301 2.8299
0.92133898 -0.34452799 2.82219
0.92429298 -0.33388501 2.82112
0.90347898 -0.324422 2.82657
0.95730901 0.90495402 2.69559
0.86616302 0.918823 2.69789
0.761379 0.979186 2.7109699
0.72228098 0.94129002 2.7040501
0.54645699 0.99495798 2.70593
0.93928999 -0.20241199 2.8072701
0.48742199 0.951783 2.6968701
1.02621 0.87879699 2.7018399
0.325084 1.02433 2.7022099
0.93118203 -0.12797 2.80444
0.97575098 0.27798501 2.7696199
1.46445 0.878712 2.7018399
0.98171902 0.33039799 2.7651801
1.29357 0.89822501 2.70086
1.26349 0.86525202 2.69537
1.22934 0.867369 2.6923001
1.215 0.86284399 2.69278
1.00515 0.35577899 2.75456
1.03038 0.50111699 2.74196
0.90927398 -0.42234501 2.8312399
0.90173697 -0.34735799 2.8280001
0.977512 0.29613 2.76704
0.92102897 -0.22047199 2.8103499
1.638 0.848198 2.6963899
0.94197601 -0.171739 2.8074601
1.62844 0.83478999 2.70667
1.53892 0.85891199 2.69455
1.60286 0.84365398 2.67942
0.93093699 -0.27130899 2.8155401
1.0014 0.32675901 2.7611001
0.94621003 -0.035400201 2.7931099
0.959342 -0.035798699 2.7920201
0.952057 -0.019834399 2.7896399
0.96443999 -0.020329401 2.7892201
0.984927 0.352027 2.76033
0.92271698 0.90958703 2.69698
1.53585 0.842502 2.70434
1.5861 0.83926302 2.7030799
1.52741 0.84444499 2.70611
1.5032099 0.866225 2.6972599
0.98429298 0.18724801 2.7727699
0.96146601 0.13892201 2.7820301
0.98773599 0.20450699 2.77159
0.97056401 0.24620301 2.7738099
0.96257001 0.129636 2.7800901
1.22144 0.91467798 2.7076299
1.00125 0.35090101 2.7579
1.64582 0.83395803 2.70803
0.96242899 0.00415876 2.79387
1.02257 0.49964499 2.7425499
0.99659997 0.43893701 2.75282
1.02423 0.50959098 2.74209
1.01695 0.57880801 2.7365899
0.31229001 0.97257698 2.70241
1.5850199 0.83581001 2.70351
0.96310002 0.0861452 2.78056
0.606152 0.931925 2.6923699
0.52697301 0.99545401 2.7053101
0.75135303 0.93335098 2.7014401
0.95076102 -0.082010001 2.79971
0.74743599 0.976578 2.70469
0.841465 0.96664298 2.7005
0.93665498 -0.0898678 2.80088
1.03107 0.93695599 2.7037001
0.94928598 -0.093516998 2.79969
0.95230001 0.0207149 2.7884901
1.10256 0.93107599 2.7096801
1.24964 0.86859697 2.6983199
1.27608 0.90530002 2.7012899
1.31672 0.86052501 2.69925
0.44445801 0.96751797 2.7019999
1.03327 0.62627798 2.7333701
1.36265 0.85484099 2.69434
1.3322999 0.88821697 2.68204
1.01292 0.42075801 2.7490001
1.40319 0.85092402 2.6978199
1.01554 0.43507299 2.7481599
1.46517 0.824633 2.7034299
1.42326 0.87845498 2.69684
1.46828 0.83695197 2.70261
1.49553 0.84590298 2.7018299
1.50976 0.84491903 2.7038801
0.95429701 0.0408631 2.7834499
0.92394298 -0.187782 2.8115699
1.4024301 0.88233697 2.6997499
1.06652 0.88859999 2.7102599
0.99765098 0.89807701 2.69415
0.90262097 -0.310341 2.8266699
0.974455 0.90498298 2.69894
1.04769 0.77497798 2.7160001
0.827981 0.92407697 2.70121
1.5576 0.838269 2.70345
1.4637901 0.876517 2.7019501
1.2981 0.86015099 2.6954601
0.920973 -0.124569 2.8109901
0.69234198 0.94275701 2.7016201
0.424624 1.00638 2.7032599
0.517977 0.96602601 2.7027099
0.900527 -0.28106001 2.8252299
0.91294003 -0.116085 2.8157401
0.91392797 -0.083932199 2.8146999
0.93962801 -0.26202101 2.8048201
0.93170202 0.091279201 2.80054
0.89919502 -0.24775399 2.8264699
0.90003002 -0.19070099 2.82479
0.90591902 -0.155569 2.8204501
0.93202102 0.0262351 2.8013799
0.974612 0.0196421 2.77683
0.89873701 -0.50664699 2.8353701
0.95558399 0.238984 2.78195
0.89235502 -0.33989999 2.8320799
0.89064902 -0.31868601 2.83218
0.92304802 0.053646501 2.8069999
0.97387397 0.023946 2.7779
0.89013797 -0.36857301 2.8340499
0.92864603 -0.31256199 2.8146901
0.94598401 0.163624 2.7894399
0.94084603 0.119959 2.79267
0.73593801 0.93286902 2.6961501
0.975425 0.335776 2.7646599
0.889103 -0.33719999 2.8310001
0.97991598 0.40281099 2.75946
1.02795 0.51385701 2.73685
1.01916 0.62005597 2.7307999
0.89042199 -0.41386899 2.8317699
0.96242201 0.26931801 2.77584
1.04532 0.785752 2.70983
0.97357202 0.31258199 2.7679901
1.03177 0.699395 2.7204101
0.864066 0.908494 2.6877999
1.18647 0.86153197 2.6820199
1.28611 0.85438901 2.68806
0.99551398 0.496795 2.74893
0.93594599 -0.24398001 2.8100801
1.0172499 0.98125398 2.7625501
1.31209 0.89325798 2.6959701
1.05565 0.94116497 2.7075
1.38491 0.84819502 2.69087
1.0424 0.76467001 2.7098401
1.09614 0.91301501 2.7109499
1.51539 0.84200299 2.6989601
0.45607299 0.98895699 2.6907599
1.16599 0.86642301 2.6842101
1.50222 0.83987898 2.6963
0.49227199 0.96545202 2.69487
1.35594 0.882635 2.6921
0.33001801 1.00212 2.7025399
0.77390099 0.92510498 2.6932499
0.989016 0.94082499 2.70051
1.04807 0.77919602 2.7216301
1.02414 0.46041101 2.7429099
1.41424 0.84260499 2.69189
1.24722 0.90930098 2.7057199
1.45261 0.840689 2.6932399
0.97709298 0.374387 2.7630401
1.02461 0.89281899 2.6890399
1.03562 0.71924102 2.71966
1.06293 0.86946499 2.6912401
1.48329 0.841919 2.6965001
0.91965699 -0.027005499 2.8086901
0.61395001 0.94661099 2.69665
1.1477799 0.91732103 2.69818
0.913885 0.94962603 2.6998
1.05589 0.81894702 2.7153201
0.98961502 0.45359099 2.7532699
0.56049502 1.0017999 2.70487
1.01436 0.395962 2.7474999
1.25107 0.85759801 2.68787
1.0305001 0.55933303 2.7352099
0.95356399 0.89203 2.68242
1.23948 0.85379201 2.68396
1.01897 0.42284399 2.74263
1.48074 0.84103799 2.69561
0.474599 0.96901 2.69612
1.39188 0.88546097 2.6979301
0.97787303 0.064793199 2.7756
1.3695199 0.84273201 2.68537
0.71795899 0.96978402 2.70134
1.0099601 0.382626 2.75596
0.98109901 0.139221 2.77843
0.91646099 -0.28382 2.81615
1.03353 0.54552603 2.7405701
0.91526997 -0.242158 2.8140099
0.91909999 -0.241576 2.81547
1.5006599 0.84509897 2.70224
0.94780701 -0.073887698 2.8006599
1.6225899 0.83148199 2.7026999
0.93842298 -0.052081101 2.7999201
0.445182 0.99803001 2.7013299
0.95382899 -0.037338998 2.79654
0.95785499 0.049557298 2.7857101
1.5816 0.83685398 2.7038801
0.99557197 0.295338 2.7658899
1.536 0.83877301 2.6995499
0.83851099 0.92091799 2.6998301
0.54530299 1.00853 2.71189
0.974482 0.22489201 2.7714801
0.97138399 0.173384 2.7723801
0.95887202 0.0037668101 2.7935801
0.80075699 0.92573202 2.6996701
1.4479899 0.85197097 2.70362
1.03376 0.60946101 2.7369201
1.02773 0.54824501 2.7400899
1.02565 0.623465 2.7326701
0.96587199 0.132597 2.77598
1.0403399 0.66636902 2.7330301
0.97380102 0.20739301 2.77144
1.0484 0.77549797 2.7106099
0.87464201 0.91634899 2.7000101
1.06188 0.84212798 2.7133601
1.02411 0.89600098 2.69713
0.89686799 0.95149201 2.70294
1.02669 0.50303602 2.74524
1.3195601 0.89174402 2.6986699
1.39639 0.87738401 2.69345
0.98521698 0.236256 2.77319
1.2464 0.89948899 2.68696
1.24087 0.86830902 2.6961901
1.18691 0.91204798 2.70226
0.943708 -0.123744 2.8075299
0.95123202 -0.044605602 2.7987101
0.67413199 0.94413102 2.70087
0.95762599 0.0232895 2.79567
1.42264 0.85072398 2.6990299
0.92807603 -0.18038701 2.8095701
0.99285102 0.355551 2.7593
1.005 0.346843 2.75913
0.91278702 -0.38574201 2.8297
0.91372102 -0.34992099 2.83059
1.0024199 0.32924399 2.7608299
0.99034798 0.318609 2.76021
1.11696 0.92199498 2.6966701
1.10325 0.90917599 2.7093699
0.91570997 -0.22561599 2.81428
0.99328202 0.418053 2.7553501
1.56701 0.83395201 2.7009001
1.5450799 0.83834499 2.70105
1.5173301 0.86243403 2.69736
1.49677 0.84508598 2.7026801
1.48163 0.84966302 2.70455
1.45523 0.87157398 2.69735
0.38210401 0.98516798 2.7061501
0.51537001 0.94515699 2.6954899
0.98626202 0.30190399 2.7634101
0.967785 0.049060199 2.7870901
0.91907102 -0.23831099 2.81564
0.98321301 0.27091101 2.7650599
0.92361099 -0.187703 2.8083601
0.92431802 -0.17055701 2.8083899
1.00649 0.51815301 2.7467
0.94224697 -0.037334502 2.79691
1.57784 0.85642302 2.6968701
0.62708497 1.00205 2.70473
0.91354197 -0.34473801 2.8320999
0.91564 -0.32598701 2.82987
0.958924 0.069731101 2.7837701
0.81975299 0.92004198 2.69911
1.57777 0.83674502 2.7025101
0.95348001 0.0280696 2.78949
1.00161 0.306896 2.7627001
0.92407799 0.90523398 2.69593
1.00291 0.46419099 2.7490599
1.01785 0.45704901 2.7462101
0.99784797 0.43314701 2.75425
0.98031801 0.23757 2.7669401
1.05234 0.83281898 2.7045701
1.01238 0.417043 2.75175
0.72656697 0.93244898 2.69853
0.76829201 0.96862203 2.70783
1.05133 0.79065901 2.7251899
0.85929 0.96053898 2.70698
0.93993801 0.95113099 2.70083
1.0986 0.92742598 2.7037101
1.53108 0.86435598 2.6955199
1.5541101 0.83357102 2.7018299
1.53036 0.84077698 2.7024601
1.50369 0.86763 2.6987901
0.35120901 0.986184 2.7011499
1.46009 0.82143003 2.7102399
1.44586 0.80959702 2.7199299
1.3903 0.856215 2.70123
1.35765 0.85839701 2.70066
0.90630698 -0.378712 2.8248899
1.2077 0.87359297 2.6976299
1.0064 0.89506102 2.6956999
0.99612403 0.31285 2.7623899
0.91893601 -0.259525 2.8159299
0.92471999 -0.25218499 2.8202801
1.14644 0.88046902 2.6972899
0.939942 -0.201336 2.8099599
0.93924999 -0.174999 2.8104501
0.93627602 -0.158751 2.8029399
0.94918197 -0.13042399 2.8003299
1.03216 0.597103 2.73788
0.95692903 -0.0200898 2.79723
0.90278298 0.906102 2.6937599
0.96573502 0.144412 2.7764001
0.57256001 0.95551997 2.7007699
1.04133 0.67030799 2.7286699
1.56347 0.83569902 2.7016201
1.55291 0.83804297 2.6995499
1.52131 0.84178102 2.7018099
1.44739 0.84970498 2.7011399
1.0038 0.504188 2.7479701
1.41679 0.85491198 2.7029099
1.37921 0.88215798 2.69715
1.33418 0.88972503 2.70068
1.31517 0.862279 2.69876
1.00428 0.94639099 2.6899199
1.01634 0.55852401 2.74141
0.60710698 0.94980401 2.7007599
1.46127 0.87696201 2.7019501
0.55570602 0.98233497 2.70154
1.02443 0.49924999 2.7456
1.02885 0.56282401 2.74119
1.31844 0.89400899 2.68525
1.01369 0.420941 2.7504301
1.05047 0.773615 2.7260201
1.00345 0.32861599 2.7608299
1.03144 0.65797698 2.7260101
1.03277 0.61280799 2.7372799
0.99884897 0.277015 2.7655101
0.93687499 -0.110529 2.80181
0.97860199 0.273756 2.7683699
1.52793 0.86082202 2.7002699
1.53619 0.84200799 2.7028699
1.51083 0.842031 2.7047801
0.95801997 0.051286701 2.78566
0.90518898 -0.399497 2.82739
1.0071501 0.37619001 2.75616
0.99106097 0.36451799 2.7611599
0.92020202 -0.31348401 2.8241601
0.915663 -0.298994 2.81829
0.92189002 -0.238435 2.8099999
1.49008 0.84576797 2.7025001
1.44881 0.84215802 2.71615
0.48362201 0.96503198 2.7016201
0.95453501 -0.050731901 2.7973399
0.94761002 0.0152946 2.7971301
1.01757 0.58131301 2.7353001
0.982467 0.295376 2.7657001
1.0087301 0.39365199 2.75419
0.979909 0.283492 2.7686
0.997082 0.213891 2.7639899
1.4033999 0.854967 2.7021699
0.99867201 0.22148 2.7622001
1.43308 0.87725699 2.6998999
1.00519 0.314118 2.75934
1.01077 0.34638101 2.7529399
1.39666 0.85601002 2.70083
1.0045 0.471347 2.75104
1.0199701 0.46340799 2.74722
1.01199 0.55037802 2.7416899
1.03351 0.60030001 2.73703
1.0221 0.62433797 2.7297399
1.3101 0.89372098 2.68559
0.72559601 0.93392801 2.69853
0.98020297 0.14187101 2.7773199
0.92535001 -0.21226799 2.8106999
1.06363 0.85977298 2.7147701
0.96660799 0.12809999 2.78038
1.13816 0.88353598 2.69819
1.06232 0.85561597 2.7162099
0.932639 -0.243031 2.8145399
1.16807 0.91522199 2.70314
0.996952 0.89929301 2.69523
1.47507 0.83932698 2.69806
1.44332 0.81631202 2.7207699
1.38118 0.857256 2.7009001
1.32458 0.86246699 2.69976
1.2991101 0.86548299 2.6986499
1.2211699 0.90664399 2.70298
1.1938699 0.87405902 2.69683
0.91281402 -0.356325 2.8183501
1.15573 0.87934703 2.69733
0.92234802 -0.33081901 2.8225999
1.0923899 0.92789602 2.7032399
0.93024898 -0.26844999 2.8176999
0.92384303 -0.25382799 2.80866
0.78885603 0.97005397 2.71012
0.93741798 -0.131494 2.8011999
0.67342901 0.94017899 2.7009301
0.94634998 -0.025869301 2.79423
1.4810899 0.84476602 2.7005701
1.45515 0.87551302 2.69854
1.34162 0.86092502 2.6996
1.26667 0.87026203 2.69924
1.00122 0.285642 2.7639899
0.90878898 -0.404796 2.8336301
0.90924197 -0.38743901 2.8325801
1.03421 0.61547601 2.7360799
0.344612 0.98916 2.70596
1.35333 0.86037898 2.7007401
1.24781 0.87123603 2.6988699
1.01881 0.449848 2.7486601
1.0315599 0.65501201 2.72563
0.90672398 -0.38457 2.82533
0.91453499 -0.35100701 2.8309901
1.03018 0.57230401 2.7409501
0.91814601 -0.279944 2.81517
0.92434901 -0.238069 2.8125801
0.999672 0.89357901 2.69947
1.05391 0.77944899 2.71945
1.48853 0.84486598 2.70052
1.40493 0.85818499 2.7034199
1.45454 0.85070002 2.70611
1.4028 0.87712801 2.69858
0.92194599 -0.318564 2.82528
0.92999399 -0.26126501 2.8174801
0.92762101 -0.215314 2.8109
0.93083602 -0.17329 2.8078699
0.98316097 0.288773 2.7679901
0.96284598 0.0234688 2.7913799
0.99207199 0.26192901 2.7692101
0.98816198 0.31524801 2.7630401
0.99157703 0.33872101 2.7597201
1.02637 0.61158198 2.73227
0.99708498 0.409953 2.75476
0.482737 0.962641 2.70502
0.591263 0.94663203 2.7053699
0.98969901 0.203228 2.7707901
0.632029 0.99439198 2.70734
1.04325 0.75592399 2.72259
0.77673298 0.970837 2.7099299
0.95525301 0.90152699 2.69649
0.96431297 0.89889002 2.6944101
0.99065799 0.89612103 2.69468
1.02749 0.89708799 2.6961999
1.06092 0.91828603 2.7128201
0.97320002 0.92563403 2.5654299
1.20522 0.87350798 2.69505
1.27381 0.89795601 2.70017
0.96110803 0.0936611 2.7836499
1.34417 0.85977 2.6972401
1.02702 0.53635502 2.7422199
1.36444 0.88339102 2.70069
1.3460701 0.86132598 2.70084
1.31428 0.86373502 2.6999199
1.03345 0.547212 2.74139
0.96546602 0.0368798 2.78879
0.93115997 -0.238344 2.81652
0.91257203 0.90412998 2.6970201
0.828888 0.96433502 2.7079501
0.82252401 0.91969597 2.6956699
1.03253 0.58526599 2.7372
0.93693 -0.13607199 2.80182
1.03634 0.58916801 2.73913
1.0423599 0.67625201 2.73441
0.95245302 -0.082010098 2.80092
1.04015 0.63637 2.73598
0.99063498 0.234392 2.7702999
1.22544 0.90691298 2.70329
1.15371 0.87849402 2.6960399
1.0221699 0.40735 2.7507
0.91190302 -0.35740301 2.8216
0.91651601 -0.30234301 2.8171301
0.97524399 0.95006299 2.6894801
1.02078 0.47044101 2.74771
1.0535001 0.79672801 2.71857
0.72550797 0.93043602 2.6986301
1.6174999 0.82475698 2.70099
1.64265 0.82934099 2.7016301
1.63983 0.82876801 2.70118
1.59693 0.83195603 2.7007799
1.62607 0.84775698 2.6928201
1.58662 0.85664302 2.69574
1.60689 0.83139497 2.70035
1.57178 0.83326 2.69871
1.5094399 0.84274298 2.6960599
1.51096 0.835545 2.69699
1.44434 0.833332 2.71562
1.4087 0.85369098 2.69962
1.45145 0.85213703 2.70259
1.47703 0.84311599 2.69592
1.4401 0.84839702 2.6995201
1.41506 0.87774003 2.6932001
1.33153 0.86161602 2.69682
1.37214 0.85620999 2.6972699
0.90956002 -0.40031701 2.8327
1.30783 0.864838 2.69876
0.94707203 0.021993199 2.79334
1.37147 0.88750798 2.6989801
1.32656 0.89143199 2.6963899
0.97537398 0.108548 2.77613
0.95148998 -0.108366 2.80181
0.982252 0.33852601 2.7620201
0.98879302 0.191635 2.7707901
0.85166901 0.96143699 2.6921599
0.90483803 -0.37148499 2.8224399
0.92401701 -0.186519 2.8090999
1.1226 0.88766003 2.6986301
0.92163199 -0.205598 2.8083601
1.02499 0.63779598 2.7287199
0.929995 -0.112794 2.8045001
0.92476797 -0.28122899 2.81882
0.95756602 0.120972 2.78196
1.17058 0.91420799 2.69854
0.91582698 -0.257633 2.8156099
0.935404 -0.18925001 2.8087699
1.02215 0.476558 2.7412
1.01521 0.57439297 2.73508
0.90995002 -0.315541 2.81689
0.52664602 1.00326 2.70315
0.99964398 0.26804799 2.76109
0.94305801 0.087825902 2.7895899
0.97595203 0.26637399 2.76928
0.86965501 0.91897899 2.69856
0.92559999 -0.159789 2.8065901
0.99970102 0.48334199 2.7483799
1.05269 0.92789298 2.7080901
0.90110898 -0.39249399 2.82726
0.837708 0.92088598 2.6987
1.24236 0.87379003 2.7000599
0.42697999 0.97815901 2.70509
0.98390299 0.160409 2.77069
1.06181 0.899809 2.7107
0.93479002 -0.076931797 2.80037
1.22927 0.899589 2.6986001
1.03444 0.58154899 2.73822
0.94174498 -0.13958 2.80566
1.0293 0.53852898 2.73721
0.93329901 -0.21531899 2.81162
0.99828398 0.90095198 2.69504
1.04715 0.75096101 2.7241099
1.00573 0.33911699 2.7542601
0.93872303 -0.040412799 2.7969799
0.90846503 -0.33661899 2.8198199
0.914657 0.91221499 2.6952701
0.745148 0.93532699 2.70016
0.35889101 0.99169499 2.70491
0.94151503 0.00121169 2.7951601
0.414635 1.00116 2.6946101
0.53975999 0.96869397 2.7036099
1.12149 0.92413902 2.7037301
1.00983 0.53846002 2.74101
0.95754498 0.125596 2.7825799
0.70704901 0.93869001 2.70102
1.187 0.87792099 2.69751
0.93357003 -0.085022502 2.8002701
0.63078099 1.0029 2.7093599
0.97376001 0.069463 2.7774
1.13201 0.88483 2.6967599
0.75689399 0.93478298 2.7002599
1.0509 0.851982 2.7017601
0.98609799 0.45809799 2.75615
1.0501699 0.77908099 2.7188699
1.28599 0.86567003 2.6949501
1.3457201 0.888901 2.70047
1.3561701 0.86083198 2.70193
1.32539 0.86165798 2.69608
1.30348 0.86564702 2.69961
0.90656501 -0.35817599 2.8399701
1.26006 0.902659 2.7007501
1.2180099 0.90816897 2.70244
0.98055297 0.118767 2.77601
0.91403103 -0.373557 2.8217199
0.92970902 -0.32111201 2.8171
0.95052701 -0.137292 2.8020401
0.92173499 -0.290539 2.81408
0.93078601 -0.267721 2.81493
0.92566103 -0.259909 2.8117499
0.932145 -0.150282 2.80671
0.944727 -0.17872199 2.80562
0.95130199 -0.131303 2.80159
0.93424797 -0.110649 2.80196
0.95581502 -0.110108 2.79807
0.935691 -0.23657601 2.81165
0.96486598 -0.0611098 2.79144
1.01773 0.42669001 2.74949
0.95452601 0.057692301 2.79004
0.95953602 0.084573999 2.7862599
0.96714598 0.153981 2.7769699
0.99104297 0.18046901 2.7685299
0.944327 -0.20426799 2.8043699
0.99321002 0.20968001 2.7679999
1.02402 0.51031101 2.74212
0.36135 0.98153502 2.7093501
1.03976 0.62010401 2.7316899
0.52901202 0.95930398 2.7007
1.04572 0.67477697 2.7284801
0.61681598 0.99947798 2.7010901
1.12029 0.92399502 2.7051899
1.0508699 0.78184199 2.7112999
0.97160798 0.018262601 2.78438
0.87724799 0.95500499 2.7068999
1.05317 0.806858 2.71016
0.93324798 0.904917 2.6956301
0.97340798 0.90058202 2.6956401
0.72120798 0.93324101 2.69681
0.77809 0.92498201 2.69912
0.91553903 -0.347087 2.81727
1.02302 0.93509799 2.7039101
1.09315 0.90236098 2.70314
0.98718899 0.29220799 2.7634201
0.98904699 0.30748901 2.7623
1.01024 0.350265 2.75296
0.83211899 0.95962799 2.7063
1.01149 0.35354501 2.7518301
1.18423 0.911717 2.7025599
0.91826898 0.90601099 2.69661
1.11295 0.92303902 2.68908
1.00608 0.93735898 2.7021201
0.94439 0.94577497 2.70439
0.919043 -0.373101 2.8252499
0.86639202 0.91224498 2.6977201
0.85081202 0.91245401 2.69818
1.04465 0.75210202 2.71626
1.05159 0.71484101 2.72453
0.91723698 -0.32344201 2.8169
0.61303198 0.94461399 2.7003801
0.91936803 -0.31232199 2.81529
0.44523501 0.99302 2.70154
0.47518101 0.96485502 2.69964
0.93040103 -0.236856 2.8080699
0.93150902 -0.22831599 2.8074
0.961824 -0.079595402 2.79354
0.93076098 -0.18275499 2.8062601
0.91875601 -0.383059 2.8248799
0.98309898 0.13587999 2.7743299
1.19441 0.87362498 2.69805
1.14994 0.88121599 2.6982701
0.94107902 -0.079489402 2.8013599
0.93216997 -0.205768 2.80808
1.01502 0.53376698 2.7416799
0.53207999 0.99916601 2.7093899
0.92783803 -0.29581299 2.8208799
0.448259 0.96856499 2.7018099
1.23765 0.870785 2.6984501
1.19888 0.87433398 2.69752
1.13099 0.92050099 2.7033
0.924187 -0.37428501 2.8233299
1.03311 0.58547503 2.73476
0.94720697 -0.035289299 2.79775
0.93388897 -0.24258 2.8113599
0.92994398 -0.224025 2.809
0.94471103 -0.203263 2.8039401
0.94416797 -0.145463 2.8071001
0.572245 0.95253998 2.70048
0.93136698 -0.128335 2.8046899
0.95657498 -0.113192 2.79702
0.93471199 -0.10178 2.8040099
0.94031203 -0.071779802 2.80123
0.95982897 -0.069305398 2.7939999
0.94412601 -0.022584399 2.79775
0.965837 -0.0213123 2.78825
0.95276499 0.0275838 2.7938399
0.95297801 0.050321899 2.7912199
1.04778 0.69357997 2.7243099
0.97751802 0.072159499 2.7813499
0.977651 0.091685899 2.77858
0.96654499 0.12798101 2.7799399
0.99395603 0.22875801 2.7660301
0.96760303 0.022219701 2.7865901
0.997877 0.286477 2.7629199
1.00606 0.31637201 2.7572601
0.99648499 0.35966599 2.7565401
1.01553 0.39337 2.75001
1.01728 0.40884799 2.7497399
1.08813 0.897708 2.70716
1.00361 0.46636599 2.7488999
1.01009 0.491485 2.74453
1.01279 0.511675 2.7436099
1.09938 0.90883797 2.7077701
0.345954 0.98871398 2.7056601
0.462479 0.967538 2.7016799
1.0257601 0.59882599 2.7329199
0.96287 -0.033313598 2.7901499
0.56259102 0.95247698 2.7001801
1.04116 0.62423998 2.7300601
1.03132 0.64844102 2.72629
0.67728299 0.94127399 2.7007899
0.689403 0.98456699 2.71014
0.80605501 0.91970599 2.69889
0.97380501 0.053317498 2.7832999
1.05651 0.77325499 2.7171299
0.889884 0.95544302 2.7038901
1.06291 0.80142701 2.7131
0.989407 0.89681202 2.6960001
0.99459499 0.89837098 2.69698
0.95749098 -0.092803702 2.7938001
1.082 0.91173202 2.7091801
0.99493599 0.23195399 2.7653201
1.06543 0.92450202 2.71015
1.07023 0.870579 2.7062199
1.00096 0.44211 2.7493999
0.938155 0.904688 2.6963699
0.88407302 0.911645 2.69593
0.82606399 0.96570599 2.70766
1.01963 0.44357499 2.74558
0.81404698 0.91909301 2.69871
0.757725 0.975236 2.71088
0.92752802 -0.321345 2.8176
0.73180002 0.93023098 2.6996
0.93017 -0.30572399 2.8165801
1.04763 0.66598898 2.7272999
0.93309802 -0.27162701 2.8131199
1.04219 0.63289201 2.72981
0.54995298 0.95544899 2.70151
0.46502399 0.97202098 2.7
0.46994299 0.963723 2.70402
1.03488 0.557073 2.7354801
1.02105 0.55409598 2.7390101
0.94503301 -0.189833 2.8052499
1.02545 0.50717998 2.74052
0.97873098 0.098112799 2.77812
1.00518 0.93809599 2.7008901
0.98906398 0.16643099 2.76952
1.02511 0.473537 2.74279
0.934699 -0.086858198 2.8057001
0.92507601 -0.34956199 2.8211801
0.94852501 0.0185268 2.7974701
1.05211 0.69585502 2.7254701
0.98997599 0.29688901 2.76229
0.92878997 -0.176751 2.8020799
1.02775 0.61110801 2.7319801
0.918181 -0.23840199 2.8330901
0.91992903 -0.38665399 2.8231499
0.91849703 -0.33769399 2.8276501
1.11298 0.92088002 2.7021401
1.11531 0.89105397 2.70151
0.97752899 0.080239303 2.77827
0.97433603 0.193178 2.7715099
0.95395797 -0.103256 2.79562
0.93144399 -0.135334 2.80827
0.96962702 0.167253 2.77373
0.93215197 -0.262467 2.8130901
0.92544699 -0.244758 2.81001
0.93107301 -0.182569 2.8071699
0.92672998 -0.231557 2.8102701
0.92928201 -0.212689 2.8097999
0.94950002 -0.150829 2.79899
0.95302302 -0.131355 2.7974999
0.95525998 -0.120141 2.7963901
0.92240202 -0.25838801 2.8117399
0.95851701 -0.100445 2.7952399
0.95803303 -0.089007199 2.7927699
0.96415001 0.14189599 2.77685
0.94297898 -0.065505601 2.79931
0.94963402 -0.03001 2.79619
0.43707001 1.02068 2.7131701
0.974841 0.049488701 2.78214
0.76975697 0.92625099 2.70013
0.96231198 0.096531302 2.78317
1.05598 0.74495602 2.7179699
0.89453202 0.91179103 2.6977
0.98494703 0.139663 2.7725101
0.87840903 0.957923 2.707
0.98812097 0.18897299 2.77017
0.97780699 0.212827 2.7699399
0.98254198 0.235534 2.7673199
0.99727601 0.26179099 2.7638099
1.00054 0.274434 2.7616701
0.98753899 0.290775 2.7632
1.00746 0.324725 2.7550001
1.08772 0.90633303 2.70631
1.01156 0.35255101 2.75369
1.0309 0.50320101 2.73964
0.984869 0.252525 2.7667
0.391314 0.976053 2.70243
1.03308 0.53789598 2.7360401
1.04346 0.603616 2.7268701
0.48825601 0.96138 2.6990199
0.68712401 0.93805403 2.70661
1.00547 0.30481899 2.7597799
0.93456298 -0.16302299 2.80568
1.03938 0.72063601 2.7172501
0.71112502 0.96415198 2.6133599
0.70957202 0.96839797 2.6089201
1.04524 0.751966 2.71419
0.94758302 -0.183568 2.80129
0.94550103 -0.19184899 2.8026099
1.04916 0.77661002 2.7124901
1.05152 0.78828102 2.71117
0.79373097 0.92293698 2.6993599
0.932504 0.95017099 2.7056999
0.98176301 0.898606 2.6972001
1.05797 0.83601201 2.70907
0.81677002 0.92001599 2.69877
1.06861 0.84610498 2.70962
1.0375 0.88274801 2.7019701
1.01689 0.379632 2.7509501
1.0306 0.93393898 2.7021301
0.93600899 -0.27674299 2.81092
1.10653 0.90129399 2.70699
1.01696 0.89396203 2.69612
0.96341002 0.0265183 2.7876
0.99946702 0.89650601 2.69679
0.83964998 0.91638899 2.6977701
1.05199 0.70436102 2.7232399
0.689219 0.98358601 2.7107401
0.73084998 0.92836899 2.6995299
1.04661 0.66804999 2.7251799
1.0425299 0.62415498 2.7300601
0.99576002 0.36098999 2.7570901
0.92052299 -0.27907199 2.8111801
0.92325801 -0.348362 2.8206899
0.92395401 -0.34235099 2.82148
0.91877103 -0.32112899 2.8143799
0.92857701 -0.313106 2.81513
0.92879802 -0.311064 2.8154099
0.932607 -0.293585 2.8150401
0.94070798 -0.21966 2.80797
0.93164599 -0.193074 2.8066101
0.945481 -0.17294 2.8016
1.06916 0.85616499 2.70786
0.94643098 -0.0292833 2.7943101
0.949516 -0.0163411 2.7934799
0.97025698 0.034331899 2.78351
0.97951299 0.21744899 2.77003
0.976816 0.190679 2.77192
0.991041 0.20621499 2.7669301
0.99502498 0.231934 2.76336
0.97780502 0.101922 2.77703
0.99676597 0.252929 2.76143
1.01201 0.36829701 2.7499299
1.02148 0.43445501 2.7434001
1.0285 0.49397299 2.73808
0.41973701 0.974177 2.7009301
1.03429 0.553262 2.73382
0.53641701 0.957591 2.7007501
0.58653802 0.951671 2.6995101
1.05217 0.78036499 2.7130001
1.0166399 0.93772799 2.7045801
1.05837 0.74070102 2.7184701
0.89064902 0.91260201 2.6979799
1.0452501 0.73631901 2.7175801
1.0534101 0.71518999 2.7193
0.84361398 0.91776299 2.6949899
0.91676801 -0.334732 2.8174701
0.75675601 0.974253 2.7098701
1.04056 0.68747002 2.7235601
0.77850902 0.925179 2.69719
1.04698 0.65100998 2.7241099
0.70249701 0.98035598 2.7096
1.0342799 0.66017002 2.7255199
0.97362101 0.061015099 2.7813201
0.64129603 0.99083 2.71118
0.57526797 0.99797201 2.7069299
1.03645 0.578197 2.7315199
0.94355202 -0.198797 2.8056099
0.33920699 0.99071503 2.7056201
1.0243 0.47907501 2.7399399
0.93397897 -0.17171299 2.8048601
1.02661 0.47408199 2.74087
0.95046198 -0.144333 2.79828
0.95310801 -0.127758 2.7991099
1.00266 0.41384399 2.75177
0.95897299 -0.0636236 2.7909901
0.97430801 0.368678 2.7704799
1.0086499 0.327185 2.75425
0.96436399 -0.0179493 2.78688
0.96477997 0.0030438399 2.78723
0.96699202 0.0160992 2.78758
0.97187799 0.16794901 2.7729399
1.0651799 0.81414902 2.7097399
0.93874699 0.94702703 2.70137
0.97791398 0.196484 2.7718599
0.963099 0.90106398 2.6951599
0.93337798 0.90592802 2.6968
0.87953699 0.91319799 2.6969099
0.99546802 0.23826601 2.76421
1.04772 0.64835101 2.7274599
0.73949301 0.93028897 2.69855
1.04409 0.61686897 2.7256501
0.998712 0.26157901 2.7609601
0.62967402 0.94512099 2.7007501
1.00054 0.26135001 2.76314
0.97129601 0.053244401 2.7824199
0.464252 0.96524799 2.7007401
0.92926198 -0.21134 2.8050101
1.03005 0.51459998 2.73577
0.93528599 -0.16687401 2.8043699
0.94749397 -0.163537 2.8013899
1.00604 0.44369701 2.7491701
0.95336998 -0.117976 2.7971101
1.01888 0.40432799 2.7448201
0.95531899 -0.103225 2.7941301
1.0147901 0.38988301 2.74663
0.96286601 -0.035909899 2.78862
1.00886 0.34360799 2.75298
0.92850602 -0.31829301 2.81618
0.92023599 -0.311452 2.81163
0.97060299 0.124201 2.7760301
0.91187203 0.95344901 2.7041399
0.921296 -0.30202699 2.81337
0.93064702 -0.29077801 2.8150401
0.92359602 -0.27191001 2.8125401
0.93564099 -0.25387201 2.8127201
0.93992001 -0.224085 2.8087599
0.94270402 -0.196308 2.80621
0.96049702 0.025441701 2.7862401
0.933887 -0.17769 2.8051701
0.93630099 -0.15081 2.80235
0.95031297 -0.13871799 2.7983501
0.95120502 -0.134288 2.7985301
0.96010101 -0.058327001 2.7901001
0.95641798 -0.079366297 2.79268
0.94824398 -0.0480639 2.7932799
0.961927 -0.041753199 2.7886701
0.96377403 -0.022567499 2.7879701
1.0585999 0.75890201 2.7148499
0.92534298 0.908638 2.6974399
0.95147002 -0.0113174 2.7916501
0.99674201 0.23453701 2.7643199
0.96638399 0.0092795603 2.7858901
0.971596 0.0465011 2.7817099
0.95902699 0.078307003 2.7824299
0.97530502 0.082317799 2.77895
0.96759897 0.105954 2.7790401
0.97941101 0.11887 2.7756901
0.983491 0.153373 2.7717099
0.99839503 0.260322 2.7606299
0.99406397 0.220613 2.7639699
0.98476702 0.261675 2.7650101
1.0042 0.315633 2.7550099
1.01151 0.36556 2.7501199
1.0065399 0.42733899 2.7492599
1.00913 0.463774 2.74595
1.01477 0.49466401 2.7421501
1.029 0.506724 2.73738
0.48135999 0.96288401 2.69891
1.0355099 0.56007898 2.73333
0.99031901 0.199122 2.7671199
1.04021 0.60013002 2.7281401
0.71729499 0.933438 2.6991601
0.94316298 0.90647203 2.6965001
1.03716 0.67187101 2.72457
0.79817802 0.96896899 2.7077701
0.94348198 -0.062347502 2.79545
0.982714 0.25335899 2.7653999
0.77136201 0.928056 2.6981201
1.03326 0.64397597 2.7274599
0.62466002 0.94772899 2.70016
0.92172998 -0.29015201 2.8129499
0.93296999 -0.26436901 2.81303
1.02191 0.44215301 2.74348
0.94492102 -0.180968 2.8041501
0.95355701 -0.109314 2.7952399
0.95519 -0.091032401 2.79476
1.0019 0.29503599 2.75682
1.0012701 0.27993199 2.7579401
0.98855901 0.287678 2.7626801
0.96021301 0.080677003 2.7815599
0.87123698 0.91596198 2.6982601
0.68535501 0.98368299 2.70701
1.03083 0.63432598 2.72809
0.63335598 0.94553399 2.70017
1.0362099 0.57393599 2.73124
0.55368 0.95656699 2.6983199
0.97000301 0.0163226 2.78721
1.02896 0.49237001 2.73844
0.40719399 0.97404701 2.7028601
1.0054801 0.43862301 2.74874
1.02029 0.40929601 2.7460799
0.94586402 -0.169953 2.80246
1.00929 0.344235 2.75177
1.0078599 0.33861101 2.75208
0.95282 -0.1207 2.7966299
0.93030298 -0.291987 2.8192501
1.05519 0.722372 2.71611
0.92401803 -0.26412499 2.8082099
0.92568201 -0.25513801 2.80948
0.92756099 -0.24185801 2.80845
0.92968398 -0.224948 2.8085799
0.93378901 -0.17157499 2.80165
0.94522899 -0.169084 2.8037901
0.93707401 -0.157611 2.8023
0.939533 -0.12680601 2.7994699
0.94919097 -0.126661 2.80002
0.95356399 -0.099581197 2.7966299
0.95655102 -0.0763174 2.7937
0.94354701 -0.0715812 2.7957301
0.94686598 -0.062939197 2.7941301
0.95877898 -0.061389402 2.7923999
0.95164102 -0.036591899 2.78935
0.96494001 -0.0088785002 2.78812
0.95378399 0.0253176 2.7855501
0.96166801 0.0452279 2.78158
0.97345001 0.066736102 2.7805099
