# .PCD v0.7 - Point Cloud Data file format
VERSION 0.7
FIELDS x y z
SIZE 4 4 4
TYPE F F F
COUNT 1 1 1
WIDTH 73
HEIGHT 1
VIEWPOINT 0 0 0 1 0 0 0
POINTS 73
DATA ascii
2.59131 0.57375002 5.7494702
2.54772 0.497069 5.7496099
2.5190301 0.51322502 5.8235302
2.4967501 0.51260298 5.9019899
2.46316 0.50519598 5.9710898
2.5122399 0.48394799 5.8762999
2.5046999 0.48739499 5.7504501
2.53547 0.50163901 5.7550998
2.4961901 0.41316599 5.7789602
2.5524099 0.50390399 5.7539902
2.4665899 0.50526398 5.96942
2.4927299 0.49015999 5.8892398
2.5058 0.48067001 5.7525902
2.5251601 0.49756399 5.7502198
2.5117199 0.51355898 5.83323
2.50174 0.48473901 5.7507401
2.51649 0.489878 5.7496901
2.53228 0.48043099 5.7133799
2.5271499 0.498404 5.7481999
2.52741 0.48015299 5.7100401
2.53284 0.500655 5.75454
2.52687 0.49623099 5.7519898
2.5297301 0.50213897 5.75594
2.5622201 0.57003599 5.9043002
2.52354 0.477808 5.7100701
2.4981599 0.486985 5.7543602
2.5448799 0.50889403 5.7579498
2.4575 0.51006198 5.9713898
2.52391 0.499394 5.75424
2.5264399 0.50719398 5.8201499
2.51752 0.48713899 5.7402401
2.5160899 0.48374 5.7098799
2.55354 0.49751601 5.73773
2.4967899 0.48234901 5.7504902
2.5276101 0.51239198 5.8148198
2.54024 0.50218099 5.75034
2.5159099 0.483509 5.7088199
2.5227301 0.49905199 5.7505898
2.48296 0.50709403 5.8964901
2.5135901 0.50023901 5.86168
2.5339601 0.577048 5.9555001
2.5239601 0.48002601 5.7083201
2.52562 0.51329303 5.8163199
2.5581801 0.50229698 5.7424402
2.5225301 0.499955 5.7523098
2.51701 0.51349199 5.8295898
2.48493 0.50217098 5.89428
2.5041499 0.50471997 5.9218102
2.4551799 0.51292199 5.9717898
2.4482901 0.51090997 5.9698901
2.49716 0.51386398 5.85285
2.5165501 0.48971 5.8751898
2.5318 0.49975601 5.7438598
2.53615 0.501176 5.7518702
2.5278399 0.49815199 5.75209
2.4630301 0.50835103 5.9746699
2.54251 0.559623 5.8580899
2.5580101 0.62283897 5.6985402
2.5199201 0.48217201 5.7114301
2.5201099 0.48298499 5.7434802
2.5921199 0.510602 5.7382798
2.57477 0.49292499 5.8080802
2.5901799 0.51483297 5.7335801
2.4828601 0.50570101 5.9604602
2.48704 0.50767899 5.9548202
2.55003 0.54121101 5.9545298
2.5462101 0.45897499 5.82833
2.55599 0.49840799 5.8724599
2.5274601 0.54718 5.96803
2.5613999 0.50453502 5.8784699
2.47035 0.50256699 5.9766898
2.55916 0.49786299 5.8802299
2.55796 0.50222701 5.8717699
