# .PCD v0.7 - Point Cloud Data file format
VERSION 0.7
FIELDS x y z
SIZE 4 4 4
TYPE F F F
COUNT 1 1 1
WIDTH 64
HEIGHT 1
VIEWPOINT 0 0 0 1 0 0 0
POINTS 64
DATA ascii
5.5118499 -0.27584499 2.0869501
5.5091 -0.27658501 2.0932701
5.5680099 -0.227817 2.0954399
5.7866802 -0.32246599 2.0904
5.6868801 -0.20359001 2.08411
5.5949602 -0.23342501 2.05832
5.7431698 -0.325719 2.1157999
5.6886702 -0.20474599 2.0878301
5.8036299 -0.208967 2.04755
5.6641502 -0.283057 2.14343
5.56212 -0.28214699 2.09869
5.64606 -0.20344 2.1017001
5.5609398 -0.25534299 2.07459
5.6556602 -0.244311 2.08549
5.6180601 -0.20412 2.1152999
5.64324 -0.277141 2.1147499
5.62953 -0.254915 2.0819499
5.6708899 -0.26093099 2.09671
5.5011001 -0.284679 2.0840099
5.6180301 -0.25546101 2.08214
5.50491 -0.28348601 2.0844901
5.6353598 -0.25450301 2.0922101
5.4678402 -0.230795 2.06355
5.5416598 -0.239586 2.08373
5.6530199 -0.26015899 2.10255
5.6897502 -0.25242299 2.11098
5.6471801 -0.202566 2.1087501
5.6849699 -0.25492999 2.1122
5.5036201 -0.28369001 2.0830901
5.5521998 -0.280081 2.0927501
5.46526 -0.236688 2.0681701
5.5008001 -0.233959 2.08038
5.5560598 -0.240428 2.08972
5.5719199 -0.244497 2.0933101
5.66853 -0.25607499 2.1150601
5.7202802 -0.227608 2.11285
5.4976401 -0.28290501 2.08044
5.74506 -0.275298 2.11659
5.6799798 -0.248597 2.1085501
5.4899998 -0.235544 2.08302
5.5121999 -0.238322 2.0881
5.5864301 -0.244343 2.09642
5.5927701 -0.244744 2.0968299
5.62988 -0.24858201 2.1031899
5.5261898 -0.239223 2.0890501
5.5847902 -0.226382 2.1071999
5.6788702 -0.254758 2.1124301
5.9051499 -0.231554 2.09761
5.5489402 -0.238042 2.0896001
5.5696402 -0.241045 2.09462
5.60288 -0.243076 2.09691
5.6371698 -0.244982 2.10111
5.6698399 -0.25807801 2.1180401
5.5138502 -0.28101301 2.0896001
5.4726901 -0.232067 2.08129
5.4793601 -0.23319601 2.0823901
5.5022702 -0.23515201 2.08477
5.5125499 -0.236403 2.08849
5.9219999 -0.230786 2.0994
5.7246799 -0.228084 2.1156299
5.52947 -0.238369 2.0861599
5.5829401 -0.25876099 2.0891399
5.64744 -0.25738001 2.10706
5.5415301 -0.28326699 2.0903001
