# .PCD v0.7 - Point Cloud Data file format
VERSION 0.7
FIELDS x y z
SIZE 4 4 4
TYPE F F F
COUNT 1 1 1
WIDTH 121
HEIGHT 1
VIEWPOINT 0 0 0 1 0 0 0
POINTS 121
DATA ascii
2.2964101 -0.143868 8.8825998
2.29445 -0.22281 8.94098
2.28882 -0.188035 8.8492098
2.42715 0.045308799 8.66821
2.30603 -0.161642 8.8009796
2.3117099 -0.0232537 8.7570496
2.2839301 -0.30086201 8.8331099
2.28003 -0.26335999 8.82131
2.29617 -0.135443 8.7822704
2.2846899 -0.255573 8.83881
2.30058 -0.13887399 8.8258104
2.30077 -0.090843603 8.8320704
2.3071001 -0.065011702 8.8256798
2.2787199 -0.30418101 8.8371696
2.29651 -0.136242 8.81847
2.2516401 -0.55754101 8.8608999
2.2818 -0.29349101 8.83671
2.29509 -0.18204799 8.8257303
2.2967999 -0.103814 8.8061895
2.302 -0.101235 8.8242397
2.31006 -0.073518701 8.8088198
2.2825301 -0.31586 8.8283596
2.30074 -0.164759 8.8094997
2.28776 -0.247555 8.8414803
2.2692101 -0.278458 8.8622904
2.3129399 0.078280002 8.8140001
2.29652 -0.123104 8.8073397
2.2761199 -0.31516701 8.8303404
2.29406 -0.16120701 8.8193197
2.3010099 -0.149938 8.8252897
2.2831399 -0.257653 8.8337297
2.25404 -0.55063701 8.8795795
2.22826 -0.54262102 8.89468
2.29195 -0.252047 8.8425198
2.3043399 -0.152729 8.8336096
2.2855401 -0.130485 8.8144798
2.3810599 -7.8115503e-05 8.7479401
2.29368 -0.253086 8.8420897
2.3835101 -0.028865799 8.7874098
2.3092101 -0.139819 8.8309097
2.39117 0.050490499 8.7751102
2.29951 -0.17203601 8.7899599
2.3069301 -0.0250951 8.7699699
2.3111501 -0.12748399 8.8390398
2.3150499 -0.087124899 8.8205204
2.3857501 0.0072882399 8.7522497
2.27584 -0.13265599 8.9050999
2.26896 -0.24946301 8.8725595
2.27793 -0.111726 8.8744802
2.25985 -0.29692301 8.8682203
2.27564 -0.15510701 8.8664503
2.2818699 -0.14262401 8.8570204
2.2904201 -0.099278398 8.86588
2.2611001 -0.24105699 8.8709297
2.2789099 -0.13119701 8.8439102
2.2757299 -0.246665 8.83986
2.24054 -0.54782099 8.8708601
2.3037801 -0.0966461 8.8053198
2.2880001 -0.157159 8.8288298
2.26668 -0.250783 8.85462
2.28668 -0.30015299 8.8326902
2.31285 -0.065322101 8.8124304
2.2906101 -0.085422702 8.8203201
2.3011999 -0.065426402 8.8107004
2.2715099 -0.323636 8.8329296
2.2712901 -0.31924701 8.8371801
2.2979 -0.143875 8.8123598
2.30935 -0.0247625 8.7798996
2.3018501 -0.060114 8.8135996
2.2568099 -0.26442599 8.8503304
2.2607901 -0.32363501 8.8411398
2.3011999 -0.052709799 8.8120699
2.27721 -0.25031099 8.8355999
2.2878301 -0.15785 8.8248701
2.2745099 -0.26926401 8.8322601
2.28091 -0.17122699 8.8294802
2.29423 -0.0571854 8.8163204
2.3029799 -0.140009 8.8187599
2.26197 -0.27048999 8.8438797
2.2634399 -0.31738999 8.85256
2.2799201 -0.0943316 8.8395004
2.2632599 -0.29144999 8.8466301
2.2605801 -0.282644 8.8344097
2.2864101 -0.121326 8.8364401
2.2778101 -0.148476 8.8386402
2.2621601 -0.31012401 8.8503103
2.2735801 -0.228958 8.8380003
2.29514 -0.071067199 8.8155899
2.2891099 -0.083035797 8.8155003
2.3043301 -0.16923501 8.8313704
2.30461 -0.14795899 8.8315001
2.2356 -0.410943 8.8499804
2.25331 -0.31602901 8.8328304
2.2365401 -0.147165 8.83706
2.26846 -0.41389999 8.8294001
2.27384 -0.156156 8.82201
2.27616 -0.102456 8.809
2.2835701 -0.15776201 8.8158503
2.2789199 -0.13926899 8.8081999
2.26161 -0.32493401 8.8234701
2.2872 -0.19156 8.8123198
2.29035 -0.097562902 8.8039799
2.30565 -0.154341 8.7911997
2.2692299 -0.300724 8.8455696
2.26827 -0.41116899 8.82061
2.2757001 -0.31001601 8.8148203
2.2934 -0.151356 8.8052597
2.3046899 -0.0954924 8.7940302
2.2425101 -0.407489 8.84692
2.28372 -0.103245 8.8232002
2.29845 -0.18114799 8.8222904
2.2882299 -0.29790699 8.8343496
2.2663801 -0.234824 8.83004
2.2746999 -0.256062 8.8326101
2.2889299 -0.13478699 8.8185196
2.3022201 -0.036710501 8.8024702
2.27479 -0.066451304 8.8220196
2.2618799 -0.464957 8.8288698
2.2816 -0.26872101 8.8146801
2.3011 -0.095636003 8.8022003
2.26824 -0.250743 8.8203897
