# .PCD v0.7 - Point Cloud Data file format
VERSION 0.7
FIELDS x y z
SIZE 4 4 4
TYPE F F F
COUNT 1 1 1
WIDTH 359
HEIGHT 1
VIEWPOINT 0 0 0 1 0 0 0
POINTS 359
DATA ascii
-0.597058 -1.49577 -0.40590301
-0.38508201 -1.39578 -0.37040201
-0.90368301 -1.3498501 -0.249815
-0.63452399 -1.449 -0.33987901
-0.83980101 -1.34284 -0.39544499
-0.73977101 -1.45827 -0.36793199
-1.0371701 -1.34277 -0.39991501
-0.36755401 -1.39746 -0.34675699
-0.45687199 -1.40813 -0.350041
-0.403256 -1.39353 -0.354132
0.077487104 -1.36664 -0.38469499
-0.44608301 -1.38829 -0.35920599
-0.45314199 -1.3954999 -0.368305
-0.72405303 -1.37199 -0.349208
-0.35350901 -1.48239 -0.376497
-0.58299202 -1.51218 -0.417
-0.83490598 -1.43444 -0.34640101
-0.48192099 -1.3920799 -0.36500999
-0.82666099 -1.37173 -0.36100501
-0.60790598 -1.36945 -0.38583601
0.084566399 -1.44282 -0.38293499
-0.33947 -1.4467 -0.37200499
-0.62204999 -1.3683 -0.37860301
-0.60753798 -1.37157 -0.38370201
-0.0133903 -1.45099 -0.36955699
-0.350025 -1.4741499 -0.36547101
-0.335457 -1.4663301 -0.366328
0.066187903 -1.43469 -0.381486
-0.42947999 -1.39634 -0.388565
-0.49368599 -1.39871 -0.39016899
-0.049967401 -1.44625 -0.37202099
-0.84511602 -1.45272 -0.372484
-0.69850999 -1.38661 -0.355488
-0.54338402 -1.40232 -0.408059
-0.54682899 -1.4296 -0.38598299
-0.76104498 -1.47884 -0.39465001
0.077711597 -1.43142 -0.37576401
-0.22727001 -1.45941 -0.374924
-0.55905598 -1.48768 -0.37115201
-0.075188898 -1.47852 -0.376544
-0.247343 -1.5376 -0.38880599
-0.315965 -1.4430799 -0.370298
-0.53609699 -1.40025 -0.40541199
-0.57750797 -1.35852 -0.40522799
0.21276499 -1.45303 -0.31091601
-0.39417899 -1.4239 -0.39732599
-0.638731 -1.37466 -0.38883901
-0.107872 -1.4549 -0.39750099
-0.12769701 -1.57449 -0.41762999
-0.16014899 -1.47342 -0.37977999
-0.022782899 -1.4465899 -0.360733
-0.21306799 -1.47027 -0.38382599
-0.35201299 -1.45981 -0.37453699
-0.71094197 -1.48204 -0.388841
0.028764499 -1.41936 -0.37778899
-0.106338 -1.43838 -0.36684701
-0.78911197 -1.47314 -0.385236
-0.120908 -1.43679 -0.37467
-0.193422 -1.4358701 -0.37048599
-0.83193499 -1.46293 -0.38146901
-0.666053 -1.42565 -0.383784
-0.441789 -1.41266 -0.39645201
-0.50791401 -1.40326 -0.39277199
-0.75563699 -1.39858 -0.378638
-0.81208903 -1.39625 -0.385905
-0.56665403 -1.39166 -0.398305
-0.67616302 -1.3693 -0.387326
-0.70335197 -1.362 -0.38831601
-0.81544399 -1.35207 -0.39648801
0.087477103 -1.4442199 -0.382873
-0.28699201 -1.53146 -0.38567501
-0.61597598 -1.39202 -0.38540801
-0.53480202 -1.39258 -0.38853499
-0.58272398 -1.50237 -0.39291501
-0.63162702 -1.48365 -0.37946999
-0.129932 -1.47769 -0.37864801
-0.190255 -1.4666899 -0.375054
-0.40647599 -1.47458 -0.38824201
0.038698599 -1.46226 -0.377188
-0.51601499 -1.46517 -0.38804901
-0.051809698 -1.44403 -0.36368701
-0.30304 -1.42849 -0.379401
-0.79284197 -1.42662 -0.38626701
-0.71542501 -1.4089299 -0.38389799
-0.591474 -1.39182 -0.39273199
-0.468788 -1.38183 -0.386471
-0.48675799 -1.37623 -0.39091599
-0.68407702 -1.36553 -0.39399001
-0.83989602 -1.38405 -0.375633
-0.130082 -1.44714 -0.38021499
-0.78168797 -1.47258 -0.389422
-0.230643 -1.55762 -0.40949199
-0.65145099 -1.39215 -0.394952
-0.55855101 -1.39202 -0.39207
-0.52056599 -1.3978 -0.38727999
-0.397706 -1.4295 -0.394485
0.079640001 -1.44473 -0.384294
-0.115452 -1.43928 -0.367917
-0.088589497 -1.56617 -0.389312
-0.37843901 -1.52275 -0.38963199
-0.48764801 -1.5186 -0.401696
-0.088971198 -1.497 -0.35984799
-0.56502402 -1.50665 -0.401458
-0.59096903 -1.50649 -0.40276501
-0.67745 -1.4928499 -0.40099299
-0.73791498 -1.48201 -0.40179399
-0.065855898 -1.44943 -0.37920401
-0.53772098 -1.42037 -0.372352
-0.58073699 -1.42213 -0.37829199
-0.25876701 -1.42974 -0.37656099
-0.77597702 -1.40039 -0.386547
-0.637465 -1.3850501 -0.37714601
0.0116353 -1.42063 -0.386904
-0.620709 -1.3801 -0.393691
-0.90219402 -1.37128 -0.41951299
-0.80466402 -1.35923 -0.40479901
-0.69151998 -1.3705 -0.39834601
-0.456285 -1.41513 -0.39501101
-0.77366602 -1.47106 -0.38847199
-0.51328498 -1.39271 -0.390706
-0.088720299 -1.5784301 -0.41088599
-0.307138 -1.55739 -0.40697899
-0.56553102 -1.4476 -0.373945
-0.63925999 -1.44584 -0.39091799
-0.51815099 -1.36481 -0.39039099
-0.11635 -1.57587 -0.42065299
-0.50503403 -1.51423 -0.39737499
-0.126562 -1.50705 -0.385793
-0.423143 -1.4618599 -0.37083301
-0.537435 -1.36432 -0.39318001
-0.058937799 -1.57234 -0.39844701
-0.38836801 -1.4209 -0.39517099
-0.44098601 -1.42144 -0.39035499
-0.082074597 -1.56575 -0.39962301
-0.30694199 -1.43935 -0.389635
-0.463893 -1.38433 -0.38572201
0.113022 -1.4533499 -0.37661001
0.081854999 -1.36402 -0.381172
0.069915503 -1.44148 -0.389566
0.016984999 -1.4212199 -0.380243
-0.139469 -1.44266 -0.37728101
-0.165317 -1.46738 -0.37575999
-0.204633 -1.45969 -0.37376401
-0.61255097 -1.4493901 -0.39011201
-0.53168601 -1.3940099 -0.389613
-0.34569401 -1.47544 -0.36285499
-0.51911199 -1.52361 -0.41365999
-0.38244 -1.47496 -0.381854
-0.63583398 -1.50895 -0.409583
-0.52449501 -1.39467 -0.39096799
-0.30210599 -1.4509701 -0.377664
-0.71457398 -1.4410599 -0.396458
-0.77642 -1.35353 -0.39297199
-0.60220599 -1.38 -0.39012599
-0.72940999 -1.43679 -0.38962299
-0.45526299 -1.38831 -0.38576001
-0.82166302 -1.35243 -0.402201
-0.461395 -1.41221 -0.39535499
-0.84132999 -1.42072 -0.38516599
-0.47576499 -1.41053 -0.392158
-0.257249 -1.45277 -0.37196001
-0.23447201 -1.49424 -0.38434601
-0.394099 -1.53662 -0.41578999
-0.35596201 -1.54301 -0.42156801
-0.40031901 -1.43873 -0.37360901
-0.568196 -1.51083 -0.407516
-0.61421603 -1.38685 -0.36737701
-0.60564297 -1.3820601 -0.384857
-0.57830399 -1.3818001 -0.38122699
-0.75505298 -1.48318 -0.399297
-0.76981002 -1.35752 -0.38412899
-0.83119798 -1.35821 -0.404746
-1.0083899 -1.36535 -0.37801999
-0.52449203 -1.39756 -0.397084
-0.54518199 -1.3775899 -0.38652501
0.118145 -1.4352601 -0.33095899
-0.43764901 -1.40894 -0.39998201
-0.47658399 -1.44759 -0.48062399
-0.30602199 -1.43115 -0.40206
-0.39962301 -1.4075201 -0.40339199
-0.15454599 -1.42978 -0.38585299
-0.52490401 -1.38967 -0.40272
-0.360459 -1.4230601 -0.397989
0.086379297 -1.3843499 -0.376847
-0.159219 -1.56251 -0.41726699
-0.295838 -1.4299901 -0.40339801
-0.53337097 -1.49835 -0.39080501
-0.78698099 -1.35163 -0.40579101
-0.71047598 -1.3591501 -0.392571
-0.69698298 -1.35395 -0.392268
-0.30232599 -1.43038 -0.39687699
-0.245895 -1.41913 -0.38041401
-0.79886699 -1.4577301 -0.38042599
-0.67076898 -1.48145 -0.39860499
-0.50380599 -1.5009 -0.407756
-0.83049297 -1.3482 -0.40411901
-0.71670097 -1.3547699 -0.40476
-0.65225703 -1.36494 -0.40526301
-0.55558801 -1.37948 -0.396238
-0.50682998 -1.3812 -0.390569
-0.23246799 -1.41925 -0.38466099
-0.69798398 -1.35402 -0.39373201
-1.0371 -1.34246 -0.39403
-0.622774 -1.49424 -0.41253
-0.39511299 -1.51886 -0.40345401
-0.818802 -1.34743 -0.40434301
-0.27386099 -1.53155 -0.407482
-0.76917303 -1.35413 -0.402942
-0.31719401 -1.42102 -0.39101401
-1.03992 -1.33438 -0.39244699
-0.29133001 -1.41697 -0.37489301
0.0584075 -1.47068 -0.414069
0.078823902 -1.41745 -0.380573
-0.82611603 -1.34703 -0.40671301
-0.77985901 -1.35237 -0.40213799
-0.237077 -1.41916 -0.383856
-0.211813 -1.40921 -0.37130201
0.104859 -1.42152 -0.34269601
0.0710572 -1.4523799 -0.38808799
0.0200963 -1.45184 -0.37399599
-0.0143208 -1.44822 -0.37448901
-0.0713792 -1.43264 -0.374598
-0.102228 -1.43279 -0.371934
-0.156369 -1.43211 -0.374906
-0.16667899 -1.56993 -0.42047399
-0.254834 -1.41486 -0.37005299
-0.35422599 -1.47484 -0.367845
-0.33581299 -1.44029 -0.36934599
-0.344376 -1.4281 -0.38940501
-0.35441899 -1.4394701 -0.37577501
-0.437419 -1.52414 -0.40554699
-0.405837 -1.43661 -0.386049
-0.47481799 -1.4017299 -0.39040399
-0.528184 -1.38747 -0.38606
-0.54141802 -1.38325 -0.38915899
-0.575948 -1.37895 -0.39054701
-0.47026199 -1.51967 -0.41503999
-0.66620898 -1.4997801 -0.40853801
-0.63154 -1.3686399 -0.39227301
-0.85258502 -1.35221 -0.39514199
-0.72458601 -1.4043 -0.39390299
0.063894004 -1.44168 -0.390457
-0.0817414 -1.50087 -0.366422
-0.0282932 -1.56405 -0.38587999
-0.0435392 -1.50416 -0.36840701
0.022309 -1.4201 -0.38395399
-0.34259799 -1.47278 -0.368056
-0.35351199 -1.47329 -0.369654
-0.301669 -1.43388 -0.39009401
-0.485612 -1.40413 -0.386547
-0.396501 -1.42479 -0.38500699
-0.55832499 -1.39218 -0.38788199
-0.62226701 -1.50286 -0.408806
-0.60177898 -1.38081 -0.387292
-0.60060102 -1.5189 -0.41791999
-0.64776301 -1.38038 -0.37833399
-0.61488301 -1.37834 -0.38472301
-0.77495903 -1.48291 -0.403743
-0.71908802 -1.49455 -0.416565
-0.82986099 -1.46578 -0.39567199
-0.75708503 -1.4522099 -0.42172799
-0.32617399 -1.44078 -0.388504
-0.322032 -1.42946 -0.38167199
-0.357113 -1.54128 -0.41397101
-0.83306599 -1.35505 -0.408575
-0.365733 -1.43225 -0.379186
-0.228255 -1.43681 -0.404217
-0.22457799 -1.4202 -0.38830701
-1.1733201 -1.26254 -0.31940401
-0.61466902 -1.49391 -0.40262201
-0.45301199 -1.44348 -0.40825999
-0.51613599 -1.39068 -0.39598101
-0.57341498 -1.37359 -0.385198
-0.39168799 -1.52084 -0.403934
-0.69626802 -1.48719 -0.40655601
-0.27816999 -1.54849 -0.41707301
-0.151848 -1.56271 -0.41615301
-0.22212601 -1.45288 -0.42516899
-0.109211 -1.4525599 -0.40082601
0.080975696 -1.38305 -0.38349101
-0.99570799 -1.37327 -0.37495801
-0.74178898 -1.45766 -0.37175599
-0.47442499 -1.38032 -0.41308299
-0.106468 -1.5402499 -0.38135299
0.036352001 -1.4642 -0.393271
-0.47968599 -1.45231 -0.374006
-0.63453603 -1.34232 -0.40740699
-0.400637 -1.41465 -0.39897701
-0.79229599 -1.44531 -0.361056
-0.66711199 -1.46826 -0.37151799
-0.30377501 -1.43954 -0.39943799
-0.846439 -1.43806 -0.358715
-0.85538399 -1.38994 -0.39496699
-0.76582098 -1.36695 -0.409347
-0.53144699 -1.49338 -0.377186
-0.15812799 -1.45771 -0.37107801
-0.23411401 -1.4317 -0.387972
-0.59698302 -1.39577 -0.390533
-0.56045198 -1.3843 -0.392205
-0.28401101 -1.51535 -0.36710399
-0.43302599 -1.40337 -0.41534501
-0.29918599 -1.43643 -0.397073
-0.75791299 -1.35201 -0.41127399
-0.48225999 -1.40565 -0.396983
-0.170111 -1.52632 -0.363253
-0.17873999 -1.46181 -0.38074401
-0.110631 -1.46044 -0.40420401
-0.10348 -1.42855 -0.43429601
-0.42563 -1.44514 -0.39359501
-0.35118499 -1.43376 -0.394153
-0.30934101 -1.4432 -0.40173399
-0.58517599 -1.37791 -0.40571499
-0.456521 -1.40481 -0.39851001
-0.067974202 -1.4643101 -0.412756
-0.35166201 -1.43066 -0.39924401
-0.243194 -1.44758 -0.37770301
-0.49550501 -1.4017299 -0.39589599
-0.451471 -1.41957 -0.40418199
-0.223621 -1.46545 -0.39056399
-0.188814 -1.48979 -0.37690401
-0.104385 -1.46743 -0.373393
-0.0073827999 -1.47223 -0.36571601
-0.100923 -1.45779 -0.40748501
-0.049028501 -1.48712 -0.38028401
0.0156531 -1.4758199 -0.403633
0.0625109 -1.4436001 -0.408804
0.082364798 -1.39703 -0.365969
-0.89114898 -1.39563 -0.42295599
-0.82734102 -1.36295 -0.42202601
-0.81721199 -1.3548501 -0.417207
-0.736022 -1.36781 -0.41329101
-0.33647501 -1.48204 -0.382487
-0.031182 -1.44419 -0.454851
-0.81666201 -1.44687 -0.36922199
-0.59239501 -1.48476 -0.38277701
-0.65760499 -1.3656501 -0.396882
-0.61316401 -1.38004 -0.394694
-0.42101601 -1.50196 -0.37943399
-0.61001599 -1.37401 -0.39860201
-0.515459 -1.39589 -0.39588499
-0.235421 -1.52086 -0.376183
0.086541399 -1.43433 -0.39655799
-0.69530302 -1.47809 -0.38898101
-0.61330801 -1.4424599 -0.42059499
-0.69103402 -1.3792 -0.411668
-0.54550201 -1.49187 -0.38056299
-0.63262802 -1.36954 -0.39619401
-0.453805 -1.4380701 -0.384601
-0.44679001 -1.42364 -0.411048
-0.52909601 -1.37323 -0.42226499
-0.20706899 -1.45856 -0.379994
-0.197659 -1.51762 -0.35775599
-0.245194 -1.45077 -0.41132501
-0.00083716802 -1.46892 -0.40287501
-0.22983199 -1.44758 -0.40532801
-0.0825442 -1.47051 -0.37151501
-0.146327 -1.44113 -0.41271701
0.0213305 -1.48272 -0.406905
-0.22141699 -1.44997 -0.41017199
