# .PCD v0.7 - Point Cloud Data file format
VERSION 0.7
FIELDS x y z
SIZE 4 4 4
TYPE F F F
COUNT 1 1 1
WIDTH 131
HEIGHT 1
VIEWPOINT 0 0 0 1 0 0 0
POINTS 131
DATA ascii
7.0378098 -0.244873 5.4140701
7.0269799 -0.232639 5.40871
7.01895 -0.214095 5.4271898
7.1763802 -0.32796901 5.32657
7.0307298 -0.22308099 5.43015
7.0833502 -0.25246701 5.38517
7.0337501 -0.22867 5.4228401
7.0227199 -0.218483 5.4235301
7.0589199 -0.288407 5.3717899
7.0687399 -0.26526701 5.3822999
7.0588498 -0.273669 5.3769698
7.0043001 -0.27004099 5.3954301
7.07268 -0.255077 5.3948202
7.0539398 -0.28511301 5.3722
7.0471301 -0.28643501 5.3759499
7.1265998 -0.27158999 5.37887
7.0736699 -0.25833201 5.3919001
7.0707598 -0.249709 5.3947201
7.0693698 -0.249625 5.4019399
7.04141 -0.28716201 5.3773198
7.08393 -0.263825 5.3907199
7.0736499 -0.25849599 5.3956299
7.0679898 -0.30496499 5.3638601
7.0634198 -0.263769 5.3860502
7.04919 -0.28468701 5.37393
7.07479 -0.257083 5.3934698
7.0228801 -0.223998 5.4190202
7.0420198 -0.29651701 5.3699698
7.07376 -0.25491801 5.3928699
7.1905198 -0.34334201 5.3067198
7.0419302 -0.294925 5.3769398
7.03685 -0.291026 5.3699899
7.06774 -0.26381201 5.3824701
7.0016599 -0.26042399 5.3831601
7.0570698 -0.312709 5.3596201
7.0592999 -0.30950901 5.3569899
7.0625501 -0.28930801 5.3751502
7.0871902 -0.26102999 5.3804102
7.07585 -0.25478801 5.3915
7.0677099 -0.30779001 5.3654499
7.17307 -0.32201201 5.3203301
7.0416198 -0.296606 5.3748798
7.07693 -0.25700501 5.3892598
7.0398202 -0.297941 5.3684602
7.0342102 -0.235309 5.4079099
7.1932802 -0.34552899 5.3042998
7.0675302 -0.28300399 5.3660598
7.0545998 -0.310698 5.36164
7.05896 -0.310036 5.3576102
7.0559101 -0.31787899 5.3552399
7.0359902 -0.29403999 5.36936
7.0676999 -0.251737 5.3955798
7.0458899 -0.28745401 5.3754001
7.0423799 -0.25046101 5.4022799
7.06633 -0.30509701 5.36413
7.04426 -0.287184 5.3764601
7.0550399 -0.27617699 5.3785701
7.0741701 -0.25547999 5.3905602
7.0806999 -0.25230899 5.3920999
7.06463 -0.25145999 5.39572
7.0634699 -0.247738 5.4001899
7.0444798 -0.25082201 5.4015198
7.0806599 -0.249753 5.3938098
7.0563998 -0.28793299 5.3716302
7.0573902 -0.309827 5.3585501
7.0371099 -0.29111001 5.3764801
7.0442901 -0.289065 5.3765502
7.0523 -0.282168 5.3750901
7.06496 -0.24962699 5.3959799
7.0550499 -0.27281001 5.3811202
7.08495 -0.261033 5.38343
7.0823002 -0.25609601 5.3910999
7.0799999 -0.26834899 5.3752899
7.05091 -0.30047199 5.36341
7.0564699 -0.30106699 5.3607402
7.0551801 -0.2886 5.3724298
7.03866 -0.29853299 5.3649402
7.03438 -0.294139 5.3713298
7.0609198 -0.27386701 5.3826199
7.0710101 -0.25484499 5.39255
7.0626702 -0.25384301 5.39814
7.0409698 -0.29851499 5.3687301
7.0608802 -0.31222799 5.3694201
7.0568099 -0.30884099 5.3594699
7.0589499 -0.26789701 5.3898101
7.0444298 -0.29113701 5.3762898
7.0467801 -0.31398499 5.35817
7.0572 -0.30070901 5.3607502
7.0355301 -0.293556 5.3668199
7.0444298 -0.29360601 5.37325
7.0384302 -0.28862599 5.3766499
7.0557399 -0.27057901 5.3838201
7.0156398 -0.274827 5.4222698
7.06217 -0.27989399 5.37075
7.0573502 -0.28789601 5.3716798
7.0395498 -0.298457 5.3658199
7.0559201 -0.30887899 5.3556199
7.0562 -0.27232701 5.3810601
7.0651302 -0.250707 5.3931999
7.06779 -0.248877 5.3948202
7.0467 -0.285658 5.3737001
7.1644301 -0.315088 5.3245301
7.03232 -0.243026 5.4078598
7.0676498 -0.250126 5.3934898
7.05581 -0.270601 5.3803201
7.0436802 -0.28758901 5.37568
7.0352998 -0.29100001 5.3699999
7.04003 -0.25093099 5.3663998
7.0609298 -0.27045399 5.37925
7.0482898 -0.29391101 5.3601198
7.0700102 -0.255961 5.3808498
7.0238299 -0.24341001 5.4025502
7.0486598 -0.243384 5.4007001
7.03195 -0.25280699 5.4140902
7.0508499 -0.28314999 5.3735099
7.05968 -0.267102 5.3845501
7.0351 -0.24152 5.4113798
7.0722699 -0.277161 5.3788099
7.0325499 -0.21857101 5.42628
7.0483398 -0.29195601 5.35534
7.0233102 -0.216672 5.4170899
7.04533 -0.290409 5.3778501
7.0420399 -0.296399 5.3722
7.0377102 -0.28921199 5.3751602
7.0606198 -0.26550999 5.3873601
7.0213799 -0.221652 5.4134898
7.0209799 -0.218841 5.4143801
7.0752702 -0.27754799 5.3738799
7.0286598 -0.22887699 5.4065199
7.0223098 -0.22989801 5.42522
7.0234799 -0.22397099 5.4268298
