# .PCD v0.7 - Point Cloud Data file format
VERSION 0.7
FIELDS x y z
SIZE 4 4 4
TYPE F F F
COUNT 1 1 1
WIDTH 71
HEIGHT 1
VIEWPOINT 0 0 0 1 0 0 0
POINTS 71
DATA ascii
4.9588399 -1.5153199 4.0099301
4.8286901 -1.46828 4.0500498
4.9561 -1.5128599 4.0447698
5.0959501 -1.5154999 4.05547
4.9562702 -1.56613 3.9972899
5.0541101 -1.56795 4.0599799
4.8162198 -1.46071 4.0523801
4.95473 -1.55479 4.0661602
4.9551001 -1.51241 4.0070601
5.0813699 -1.56135 4.0558901
4.8912501 -1.41012 4.0012398
4.8380198 -1.48996 4.0051599
4.9246101 -1.50357 4.0049
4.9390001 -1.4546 4.0032501
5.1030998 -1.5858999 4.0717001
4.9738598 -1.42044 4.0006599
5.0441399 -1.55691 4.0602198
4.89891 -1.42699 3.9927101
5.03966 -1.4734 3.9965999
5.00914 -1.5567 4.0629601
4.9091101 -1.43996 3.9993401
5.0574799 -1.56005 4.0609999
5.00454 -1.4579901 3.99946
4.9720502 -1.41706 3.99685
4.8608699 -1.45289 3.99647
5.0639601 -1.55006 4.0618
4.9039202 -1.45271 3.9976699
5.1581502 -1.55966 4.0598001
5.1216402 -1.56116 4.0654302
5.0289602 -1.53873 4.0644598
4.8334398 -1.47197 4.0533299
4.9261799 -1.5280401 4.06321
5.0731301 -1.54884 4.0623899
4.9682498 -1.4622999 3.99754
5.13869 -1.5653 4.0681901
5.0484099 -1.4676501 4.00178
4.99365 -1.5383199 4.0072899
4.8294501 -1.51235 4.00495
4.8062701 -1.4442199 4.05229
4.9127998 -1.51148 4.0083799
4.9235802 -1.4984 4.05725
5.0125499 -1.51388 4.0577502
5.0611501 -1.54013 4.0089898
5.1943102 -1.56252 4.0648298
5.1327901 -1.5102201 4.0037999
5.17663 -1.51122 4.0053301
4.8160801 -1.47561 4.0591998
4.8485498 -1.4651 4.0567298
4.91891 -1.51705 4.0064802
4.94523 -1.50269 4.0605302
4.9541602 -1.48814 4.0552502
4.9619298 -1.4564199 4.0029001
5.0685201 -1.5174201 4.05932
5.1677999 -1.54945 4.0613298
4.89675 -1.48392 4.05652
5.1103201 -1.52823 4.0595498
5.07372 -1.47735 4.0049601
5.1709399 -1.48497 4.0531001
4.93923 -1.56745 4.0061302
4.9751902 -1.50036 4.0587201
5.0050602 -1.57081 4.0061498
5.0274601 -1.4893 4.0571399
5.0567198 -1.47149 4.05512
5.01719 -1.46073 4.0539899
5.1531301 -1.48434 4.0560498
4.9278102 -1.50038 4.0579
4.9877801 -1.48848 4.0546799
5.0106902 -1.49614 4.0568399
5.05335 -1.48646 4.0042601
5.1799202 -1.52259 4.0060701
5.1902399 -1.50516 4.0581102
