# .PCD v0.7 - Point Cloud Data file format
VERSION 0.7
FIELDS x y z
SIZE 4 4 4
TYPE F F F
COUNT 1 1 1
WIDTH 1581
HEIGHT 1
VIEWPOINT 0 0 0 1 0 0 0
POINTS 1581
DATA ascii
7.0159998 -0.62540603 5.1452599
7.0092101 -0.619955 5.1437898
6.6278801 -0.494629 5.1328001
7.7755098 -0.95683002 5.5896401
7.7778301 -0.96108902 5.6646099
6.6289201 -0.48820999 5.1326799
7.4035802 -0.71252102 5.1403999
6.6315298 -0.480277 5.13129
7.4106798 -0.70293403 5.1447501
6.6312799 -0.46798301 5.1293502
6.62427 -0.46388599 5.1336098
6.6328101 -0.460069 5.12956
6.62848 -0.45714301 5.1289101
6.6333899 -0.45500699 5.12883
6.6290002 -0.45234999 5.1290798
7.0190701 -0.54501998 5.1363602
6.63063 -0.444038 5.1275902
6.6346302 -0.44140401 5.1269102
6.63557 -0.43856701 5.1279101
6.6317 -0.437507 5.12708
7.4303598 -0.53087199 5.1293201
7.8088102 -0.77257103 5.7484598
7.8092198 -0.74620301 5.7182002
7.0306201 -0.436299 5.12427
7.8039999 -0.74304098 5.7218099
7.04001 -0.435063 5.1257701
7.0352898 -0.413367 5.1230001
7.03684 -0.392317 5.12011
7.0430398 -0.354159 5.1168499
7.8154998 -0.66364402 5.7923102
7.8160501 -0.65807599 5.7878799
7.8228002 -0.66060501 5.8015299
7.20821 -0.325625 5.1089602
7.04708 -0.327319 5.1139598
7.8206301 -0.67809302 5.9092798
6.7224302 -0.345608 5.1756201
6.7200198 -0.34546399 5.1752501
6.7075 -0.34383601 5.1714501
6.7034402 -0.34199399 5.1709599
6.69768 -0.341939 5.17066
6.6922402 -0.34138101 5.1693001
6.6876602 -0.338604 5.1666899
6.7827101 -0.34414101 5.1898799
7.05761 -0.29802999 5.1125202
6.7578502 -0.34616101 5.1966
7.8178 -0.66648698 5.9334698
6.7386198 -0.34380499 5.19769
6.7295299 -0.344381 5.1982698
6.7733698 -0.34042999 5.20048
6.7628698 -0.336539 5.1952801
6.7295599 -0.33738199 5.1975598
6.7272301 -0.337165 5.1969099
7.8157701 -0.67296398 5.87609
7.8337998 -0.40417299 5.5438199
7.0666499 -0.240823 5.1073198
7.1791201 -0.284554 5.2260299
7.05827 -0.228597 5.1041598
7.06882 -0.20461699 5.1036201
6.6870799 -0.29133001 5.1848001
7.7761998 -0.88264799 5.5857201
7.1210299 -0.24469 5.2274098
7.8303699 -0.55122799 5.9531398
7.8962498 -0.15316799 5.2856798
7.0231199 -0.16776299 5.0998702
7.0693302 -0.224764 5.2238998
7.3822899 -0.079519503 5.4328299
7.0697498 -0.142759 5.0939898
7.0572 -0.30070901 5.3607502
7.8428302 -0.171817 5.3885498
7.6814899 -0.1204 5.2599902
7.8613901 -0.26588601 5.5721502
7.03825 -0.206953 5.21766
7.8621702 -0.266736 5.5869899
7.0355301 -0.293556 5.3668199
7.0444298 -0.29360601 5.37325
7.7154598 -0.14896999 5.3719501
7.0908699 -0.20093399 5.2452898
7.0384302 -0.28862599 5.3766499
7.0834799 -0.19746 5.2452002
7.8628998 -0.26104999 5.6287799
7.1473598 -0.165307 5.2240901
7.86447 -0.26168799 5.64259
6.99547 -0.18762399 5.2174001
7.0557399 -0.27057901 5.3838201
7.89082 -0.23251601 5.6426702
6.9598298 -0.169727 5.21071
7.3793101 -0.081539199 5.4303198
6.9509602 -0.168851 5.21245
7.86553 -0.252552 5.71526
7.89114 -0.23469201 5.7041998
6.9401102 -0.165094 5.2120199
6.9388399 -0.162157 5.2070799
7.8674102 -0.247825 5.7567601
6.9795299 -0.145328 5.2308798
7.6578798 -0.061166 5.4137201
7.8276601 -0.56028801 5.9791899
7.8687601 -0.24400701 5.8016701
7.8688698 -0.24277499 5.80478
7.8933501 -0.22565299 5.7965698
7.8919101 -0.22065599 5.7888298
7.8706102 -0.236091 5.8864598
7.8671298 -0.24262001 5.8132801
7.0919499 -0.077214003 5.2235198
6.72016 -0.170608 5.18396
7.0995402 0.0331209 5.07938
6.72263 -0.16950899 5.18571
7.8678198 -0.24114101 5.8301902
7.8945398 -0.21575899 5.8073902
7.0917401 -0.072808698 5.22753
7.86867 -0.241436 5.8355999
7.09938 0.040623698 5.0804
7.0824199 -0.063403197 5.2268
7.8692999 -0.23885299 5.8548799
7.8961501 -0.220717 5.84308
6.7316499 -0.158182 5.1911998
7.87009 -0.238553 5.8680601
7.07373 -0.052769799 5.2210798
7.10256 0.064682499 5.0754399
7.89399 -0.21677101 5.8547101
7.89539 -0.212863 5.8501
7.2590399 -0.058428802 5.32411
7.1056199 0.067123704 5.0774002
7.1037798 0.067809001 5.0755501
7.8709698 -0.236035 5.8737502
7.0524602 -0.33397299 5.1159801
6.5850301 -0.78638202 5.1629701
7.6515098 -0.023213999 5.3877201
7.0885901 0.0069207801 5.0801301
7.8674102 -0.245737 5.7840099
6.9730101 -0.962358 5.1799698
6.9654398 -0.95411003 5.1758499
6.60638 -0.66795897 5.1529498
6.6068401 -0.666484 5.1536798
7.2029099 -0.142681 5.3166399
7.8681102 -0.251205 5.7620201
6.9284601 -0.15376499 5.2058702
7.8904901 -0.23221099 5.7276902
7.8653698 -0.249833 5.7379899
6.9485698 -0.16604801 5.2104802
6.9763198 -0.868186 5.16679
6.9835601 -0.83039802 5.1634402
6.99121 -0.82886899 5.16855
7.8660498 -0.257121 5.6946301
6.98595 -0.81367803 5.16185
6.98628 -0.79886299 5.16149
7.6796598 -0.108232 5.3813701
7.7502298 -1.22729 5.6128201
7.7523398 -1.22413 5.6167598
6.9959302 -0.79208302 5.1630101
7.6799698 -0.110394 5.3668599
7.68084 -0.113932 5.3419299
7.0039201 -0.73262602 5.1580801
6.9951301 -0.72490102 5.1511402
7.84586 -0.13113301 5.4010301
7.6814799 -0.117708 5.3162498
7.8627701 -0.26282001 5.6065502
7.86344 -0.26210001 5.5992298
7.0009899 -0.68574399 5.1498699
6.9994001 -0.68212301 5.14961
7.3969998 -0.80655599 5.1546898
7.7175798 -0.154364 5.3551002
7.0761199 -0.13012099 5.0981998
6.62568 -0.51104498 5.1344199
7.0395498 -0.298457 5.3658199
7.7662601 -1.03862 5.8489699
7.8439298 -0.16542999 5.38551
7.0702901 -0.136141 5.0924301
7.7689199 -1.01135 5.7439399
7.7667899 -0.99669403 5.6942
7.00705 -0.62503397 5.1434202
7.8432398 -0.169672 5.3552499
7.1831799 -0.34620401 5.2449098
7.0130401 -0.58816302 5.1403098
7.06143 -0.18204699 5.1016698
7.0167098 -0.56230098 5.1378498
7.9008198 -0.14796799 5.2521801
6.6275001 -0.456958 5.1291299
7.84832 -0.314807 5.53403
7.0606198 -0.184613 5.1010799
7.7801499 -0.83871102 5.5781298
7.8471298 -0.32411999 5.5356598
7.1526999 -0.33449101 5.21842
7.0623002 -0.19525599 5.1005001
7.0501199 -0.29699099 5.10993
7.0313301 -0.50038803 5.1339798
7.03228 -0.494073 5.1318798
7.8046498 -0.76047701 5.6356802
7.0292301 -0.46324 5.1277499
7.0595102 -0.22566999 5.1041698
7.1837902 -0.29417101 5.2558498
7.03898 -0.453706 5.1296301
7.8413 -0.381235 5.5407801
7.0399499 -0.45107099 5.1300101
7.41012 -0.50334501 5.1521401
7.0339198 -0.422214 5.1239901
7.40487 -0.45511201 5.1212502
7.0422702 -0.417463 5.1244502
7.0553799 -0.252931 5.1071501
7.0611901 -0.25284901 5.1078
7.0419998 -0.35080099 5.1157498
7.3557 -0.39877301 5.2138801
7.164 -0.30841401 5.2251401
7.0455699 -0.33637699 5.11515
7.8184199 -0.681629 5.87252
7.1600299 -0.33724201 5.2126398
7.8699698 -0.237455 5.8708501
7.1786599 -0.35528699 5.22681
7.0474701 -0.31494701 5.1117902
7.6531601 -0.0214497 5.3963199
7.3257699 -0.13680799 5.3731999
7.2044301 -0.325396 5.10848
7.1674199 -0.308862 5.2207899
7.8659801 -0.248394 5.7413802
7.7978101 -0.58341497 5.5631299
7.7474999 -1.2618099 5.6155601
7.4221201 -0.453747 5.1344299
7.86377 -0.259128 5.6503401
7.8056998 -0.75013602 5.6642599
7.7779298 -0.153199 5.3931999
7.7648201 -1.06853 5.5995598
7.7948999 -0.86122602 5.9159598
7.71874 -0.1388 5.3365998
7.8178401 -0.62924099 5.1331801
7.03374 -0.49504101 5.1340799
7.7660398 -1.02644 5.6791601
7.7687402 -1.0173301 5.6465902
7.6800699 -0.120171 5.26612
7.84273 -0.346692 5.5382299
7.0623999 -0.20123699 5.1011901
7.8454499 -0.172401 5.3680801
7.8989501 -0.147393 5.2420101
7.0180702 -0.608136 5.1441698
7.78055 -0.94835699 5.76195
7.01158 -0.59676898 5.1414499
7.8285298 -0.55014402 5.9616899
7.7778401 -0.95065397 5.7585402
6.77459 -0.34137601 5.2014599
7.8187499 -0.50256401 5.55477
6.6819701 -0.33904999 5.1659999
7.1809402 -0.35148299 5.23245
7.8137999 -0.68194002 5.87363
7.0605998 -0.287788 5.1127701
7.3262901 -0.37357199 5.1746602
6.5912499 -0.77533197 5.16536
6.5868301 -0.76396698 5.15978
6.5890298 -0.75679803 5.1606302
6.59378 -0.75673002 5.1633401
6.5929098 -0.73715401 5.1600599
6.5967398 -0.73634899 5.1620402
6.9565401 -1.02923 5.1855102
6.9559202 -1.02273 5.18536
6.96345 -1.01351 5.1870098
6.5940499 -0.71916097 5.15696
6.9586802 -0.99839598 5.1832199
6.5957999 -0.70992899 5.15657
6.96067 -0.985511 5.1800599
6.6010399 -0.70138299 5.1570702
6.6015 -0.69992298 5.1571598
6.9632702 -0.96660799 5.1791701
6.5968399 -0.68806303 5.1535802
6.97331 -0.95862597 5.1817098
6.59866 -0.68224198 5.1538301
7.1571202 -0.32721999 5.2197499
7.04391 -0.34660199 5.1159601
6.9703102 -0.92426002 5.1739302
6.6003699 -0.669361 5.1526599
6.9770198 -0.91349202 5.1768899
6.6016798 -0.66139901 5.1522899
6.6072001 -0.65967 5.1532502
6.9745302 -0.891276 5.1704302
6.60958 -0.652273 5.1531501
6.6076398 -0.651169 5.15097
6.9745102 -0.876252 5.16998
6.6047301 -0.64039099 5.1506801
7.7427802 -1.32828 5.6283398
6.9752402 -0.86772603 5.1695399
6.6089401 -0.63953 5.14956
6.9826002 -0.86930501 5.16961
7.74157 -1.29737 5.61939
7.7410598 -1.29277 5.61725
6.9821501 -0.850999 5.16713
6.6101599 -0.62419498 5.1478901
7.7427402 -1.2762901 5.6176701
6.6125698 -0.62021703 5.14888
6.9814301 -0.832537 5.165
6.98246 -0.82411098 5.1641698
6.6071401 -0.60995603 5.1472201
6.9844198 -0.82222003 5.1631298
7.7452798 -1.24727 5.6145601
6.6099901 -0.60089099 5.1469898
6.9928598 -0.80879402 5.1655898
6.612 -0.59483701 5.1458602
6.6152701 -0.59296501 5.1444001
6.99049 -0.78011602 5.1577902
6.6162 -0.58623201 5.1435099
6.99651 -0.76823801 5.1619101
6.6190801 -0.57691097 5.1438198
6.6206398 -0.57222003 5.14292
6.6202502 -0.55383801 5.14048
7.0022502 -0.72525799 5.1571202
7.0026898 -0.71637702 5.1570702
6.9961901 -0.71311599 5.1529999
7.7597899 -1.09909 5.7805099
6.6216898 -0.54166299 5.1382499
7.7598 -1.09505 5.7786999
6.6237302 -0.53899801 5.1389098
6.6230502 -0.53321898 5.1381202
7.39044 -0.84411502 5.1595001
7.00245 -0.67602003 5.14852
6.6244602 -0.52472001 5.1375999
7.7635698 -1.03728 5.62568
7.0023499 -0.66982102 5.1475902
7.7693901 -1.02288 5.6838398
7.76089 -1.04233 5.8559899
7.7687402 -1.00412 5.5908799
7.0123801 -0.65557402 5.1483002
7.76511 -1.01994 5.7270699
7.77 -0.99619401 5.59266
7.7730298 -0.97944802 5.5897398
7.77461 -0.97579402 5.5905299
6.62886 -0.49887499 5.1347198
6.6287799 -0.491337 5.13311
7.4050202 -0.74455398 5.1465602
7.0109301 -0.61172801 5.1427898
6.62959 -0.48063901 5.13237
7.4087601 -0.72047698 5.1489401
7.7768202 -0.93608499 5.6664801
6.6269498 -0.47279599 5.13309
7.77212 -0.946109 5.7585402
7.7772498 -0.884664 5.5847201
6.63557 -0.453141 5.1307998
6.63341 -0.45226899 5.12955
7.7802901 -0.85049897 5.5824199
7.41781 -0.64754498 5.1377802
6.6349101 -0.44338399 5.1285601
7.4190602 -0.60668302 5.1283102
7.0304899 -0.51180297 5.1336198
7.0331202 -0.503645 5.1350598
6.6040602 -0.41299501 5.1261902
7.7976899 -0.856704 5.9095402
7.0271802 -0.476702 5.1298299
7.7940698 -0.851964 5.9183998
7.02742 -0.45752001 5.1263199
6.5963702 -0.387676 5.1300201
6.6415901 -0.38903499 5.1234102
7.4091702 -0.50654 5.1518698
7.04811 -0.31789199 5.1122398
7.0390601 -0.438292 5.1269898
7.4148502 -0.49363399 5.14821
6.6431398 -0.37986499 5.1223502
7.40626 -0.483098 5.1331601
6.64364 -0.37418899 5.1214399
7.39502 -0.44637501 5.1157899
7.0353699 -0.39932701 5.1209402
6.6409798 -0.35857099 5.1189799
7.0381298 -0.39343899 5.1206398
6.6425099 -0.349397 5.1181102
7.0401301 -0.37489101 5.1191602
6.64749 -0.34489 5.11938
7.0496302 -0.37357 5.1216898
7.3352399 -0.38391799 5.1623001
7.81601 -0.65949798 5.7863498
6.7284899 -0.34691501 5.1765699
6.7147398 -0.34523499 5.1737199
6.7072601 -0.34251499 5.1722598
6.6854901 -0.33985999 5.1676302
6.6726298 -0.33708501 5.1620998
7.8213201 -0.67466301 5.90412
6.7540202 -0.34574401 5.1986899
6.7639098 -0.34446999 5.1998601
7.81707 -0.51030397 5.5529799
7.8179102 -0.50793803 5.55721
7.4212198 -0.59389502 5.1270099
7.82267 -0.66662598 5.9458098
7.0535598 -0.270473 5.1080198
7.0622802 -0.26463801 5.1090398
6.6181202 -0.32889599 5.2144198
6.6096902 -0.32712999 5.2218599
6.6151099 -0.32384801 5.2214098
7.0565 -0.22886001 5.1037402
7.47577 -0.050335899 5.5471702
7.83988 -0.37237 5.5443101
7.06007 -0.206468 5.1019301
7.84203 -0.351601 5.5379
7.13764 -0.28088099 5.2778702
7.8305802 -0.55939198 5.9369602
7.1386499 -0.273752 5.28054
6.7695098 -0.081886001 5.2133999
7.1129599 -0.239453 5.2228298
6.6592398 -0.22207899 5.1015401
7.8270402 -0.55573201 5.9878898
6.6608701 -0.208002 5.0994802
6.6661501 -0.206699 5.1016698
6.6619601 -0.204216 5.0994902
7.07479 -0.142308 5.0987401
7.6841302 -0.12396 5.2283001
7.6838198 -0.126802 5.2487302
7.0415201 -0.205925 5.2152901
7.0385098 -0.206193 5.2149501
6.6828399 -0.24259 5.18365
7.6828499 -0.121036 5.2462502
6.704 -0.23772199 5.1838498
6.6813698 -0.239871 5.1814699
6.6682 -0.195389 5.1016002
6.684 -0.238785 5.1831899
6.6683898 -0.190465 5.0994902
7.0900602 -0.19896699 5.2443299
7.8618202 -0.26360801 5.5890899
7.6579499 -0.065738901 5.2137299
6.6927299 -0.22532 5.1856999
6.6657901 -0.173876 5.0954399
7.6806998 -0.114756 5.3158898
7.6567101 -0.064515397 5.2259698
7.7788301 -0.94498903 5.7620201
6.6949601 -0.22187001 5.1862702
7.8461599 -0.130676 5.4007902
6.7210498 -0.215416 5.1866598
6.6943798 -0.21985801 5.1855698
7.4072499 -0.70550698 5.1410599
7.0517201 -0.183945 5.2431102
6.71736 -0.21452101 5.1869102
6.6712399 -0.16772801 5.0960598
6.66752 -0.163564 5.0940499
7.67975 -0.110244 5.3561101
7.1381698 -0.139128 5.2211499
6.94698 -0.17134801 5.2124701
6.6735902 -0.15523601 5.09446
7.6795402 -0.107642 5.3845301
7.6789999 -0.109201 5.3931398
6.6750002 -0.14608701 5.0950098
7.8659 -0.253084 5.6903
7.8466601 -0.171094 5.3680902
6.91575 -0.153155 5.2090602
7.89115 -0.233538 5.6995602
6.9130101 -0.15273499 5.2108498
7.86484 -0.25015599 5.7267399
7.6525002 -0.055672299 5.3571
7.8667698 -0.248862 5.7426
7.8916702 -0.224508 5.7215099
6.7399702 -0.17082 5.19032
7.86695 -0.247693 5.75211
7.3269701 -0.135924 5.3724599
7.6539602 -0.0567802 5.40098
7.65587 -0.054329101 5.4096799
6.9359498 -0.134363 5.2326899
6.7283401 -0.163794 5.1960402
7.8675098 -0.243875 5.8003402
7.8933802 -0.218016 5.7793598
7.2971201 0.034266401 5.3394699
7.86764 -0.24279401 5.8091202
7.10074 0.037788499 5.0792799
7.8666301 -0.24099199 5.8262601
7.0780001 -0.058474299 5.22258
7.1019301 0.053014901 5.0756001
7.89399 -0.220332 5.8141899
7.07968 -0.057471599 5.2256598
7.8677702 -0.24002901 5.8401599
6.7592301 -0.133718 5.1967201
7.3661499 -0.083462298 5.4100599
7.8698001 -0.23752201 5.8568201
7.3681302 -0.084108599 5.41605
7.3719902 -0.081010297 5.4260302
7.86937 -0.23604099 5.8779402
7.8685999 -0.234947 5.8806801
7.1062398 0.095399998 5.0741
6.8636498 -0.099290498 5.22365
7.8954301 -0.216498 5.8730001
7.8957801 -0.21126799 5.8661098
7.8705502 -0.23384599 5.8936801
7.37708 -0.100584 5.47895
7.4423499 -0.092542998 5.5074301
7.869 -0.23367199 5.9060001
7.4418702 -0.090418398 5.5083799
6.8467798 -0.092125997 5.2221098
7.8688898 -0.233473 5.9230099
7.0278502 -0.0184482 5.2283602
7.89714 -0.208735 5.91326
6.8259301 -0.088534497 5.2224998
7.8712301 -0.230718 5.93328
7.2939901 0.0102473 5.3306098
7.8972402 -0.211182 5.92518
6.82022 -0.086512104 5.2219701
7.8722301 -0.22957 5.94065
6.8136201 -0.089181803 5.2269602
7.8720999 -0.231858 5.9517899
7.8720002 -0.229104 5.9522901
7.4239802 -0.044135299 5.48594
6.7623901 -0.062783703 5.1763701
7.4285202 -0.040647499 5.4952302
7.8745298 -0.227065 5.9710898
6.5875101 -0.77617002 5.1628499
6.5925202 -0.76453698 5.1633902
7.2671499 -0.045074999 5.3242302
6.5954299 -0.74083197 5.1610899
6.5989299 -0.72240299 5.1603899
7.86728 -0.240492 5.8454399
6.9665298 -0.942352 5.1763902
6.96978 -0.932908 5.1741099
6.7227201 -0.16226099 5.1914802
7.03654 -0.402913 5.1221299
6.9746299 -0.88228297 5.1708398
7.7458 -1.2301199 5.6119699
7.7499499 -1.21061 5.6131001
6.9889498 -0.77332902 5.1587801
7.0651302 -0.250707 5.3931999
7.86728 -0.25764701 5.68571
6.6201601 -0.550165 5.1400199
7.763 -1.08543 5.5989399
7.0058498 -0.705437 5.1550999
6.6961098 -0.21810099 5.1859999
7.6542501 -0.064773098 5.2328501
7.7593298 -1.0336601 5.6420698
7.86272 -0.262658 5.61514
6.7181702 -0.22070099 5.18576
7.7174802 -0.132379 5.3348298
7.7597799 -1.02605 5.72823
7.8612099 -0.26569301 5.59238
7.7186899 -0.15211 5.3464098
7.0121799 -0.643067 5.14645
7.4106698 -0.45765701 5.1304898
7.0398798 -0.20528699 5.2183099
7.8454299 -0.169947 5.3738098
7.8867602 -0.247132 5.5173502
6.7077498 -0.238314 5.1828699
7.7762499 -0.91041601 5.5854802
7.8450398 -0.17076901 5.3590202
7.01509 -0.56354398 5.1374302
7.03332 -0.430637 5.12464
7.0743799 -0.14936399 5.1003399
7.06917 -0.30158499 5.36692
7.7820501 -0.84683198 5.58318
7.0263 -0.54553097 5.1384201
6.6311402 -0.439206 5.1298499
7.4246001 -0.59272099 5.13552
7.7909198 -0.86678302 5.8657198
7.4244599 -0.564403 5.12679
7.0585899 -0.178956 5.1010299
7.8119402 -0.749731 5.7221198
7.07195 -0.186754 5.1012702
6.7850699 -0.34507799 5.1961298
7.1040401 0.066240802 5.0752201
7.8173599 -0.65142101 5.7934899
7.8936501 -0.223949 5.8191299
7.6518502 -0.0211528 5.3882699
7.0427198 -0.343025 5.1147699
7.0072799 -0.619573 5.1427798
7.7465701 -1.22623 5.6159501
7.8644099 -0.25226599 5.70052
7.1795802 -0.28217101 5.2242498
7.06779 -0.248877 5.3948202
7.7155399 -0.121649 5.3863001
7.86273 -0.258784 5.6482902
7.1810098 -0.272293 5.22332
7.7651801 -1.06477 5.6002698
7.7164998 -0.15044101 5.35742
7.08426 -0.197106 5.2440801
7.0141201 -0.65028697 5.14921
7.3912902 -0.498079 5.12218
7.7747698 -0.976403 5.59372
7.6698799 -0.091502003 5.2229199
7.8245001 -0.66592997 5.94309
7.8309498 -0.558653 5.9790301
7.8620901 -0.262153 5.5880299
6.5902901 -0.78110701 5.1661501
6.59056 -0.77644002 5.1649899
6.5893202 -0.75528997 5.1612701
6.5901599 -0.752527 5.16115
6.59163 -0.743411 5.1603198
6.9527702 -1.03631 5.1893301
6.9600701 -1.03618 5.1908898
6.9548898 -1.02999 5.18677
6.59828 -0.72898299 5.1619601
6.5931802 -0.71727097 5.1564202
6.9586902 -0.995754 5.1837001
6.59899 -0.71404499 5.1595502
6.5960302 -0.70690602 5.1571298
6.97018 -0.98660398 5.1856799
6.6003699 -0.70119601 5.1575899
6.9698801 -0.97175997 5.1848402
6.5977402 -0.692415 5.1557899
6.60149 -0.69326198 5.15657
7.0692701 -0.30075601 5.3643599
6.6048198 -0.68115503 5.1574702
6.6040902 -0.67557502 5.1553001
6.9746199 -0.92275202 5.1795402
6.6047001 -0.668854 5.1549501
6.6676302 -0.16763499 5.0995102
6.9780698 -0.89301002 5.1743002
7.7403102 -1.32058 5.62638
6.60812 -0.64437503 5.1521201
6.6089501 -0.64125299 5.1524401
7.73985 -1.2992899 5.6217699
6.9864502 -0.85948002 5.1739402
6.9776402 -0.854509 5.1684098
6.6115899 -0.63200998 5.1525002
6.9780998 -0.84023398 5.1625299
6.9853702 -0.84102398 5.17134
6.61201 -0.61790901 5.1494598
6.6078701 -0.61374497 5.1482401
6.9906001 -0.82615298 5.16927
6.9874701 -0.78248698 5.15979
6.6181302 -0.582968 5.1473498
6.6101699 -0.57885599 5.1440401
7.7536502 -1.16573 5.6108699
7.75702 -1.13708 5.6045399
6.9965601 -0.74180198 5.16151
6.6191101 -0.55763203 5.1426301
7.7613301 -1.08691 5.5996699
7.0014901 -0.71970397 5.1585698
6.6215401 -0.54018599 5.1406002
6.6170101 -0.52715403 5.1398101
7.8639898 -0.262871 5.6291299
7.7670202 -1.02862 5.6869998
7.77356 -1.02095 5.7065501
6.6259398 -0.50641799 5.13695
6.6225901 -0.50334501 5.1372299
7.7713699 -0.99533498 5.7031002
7.4015198 -0.76957399 5.1533098
7.3962002 -0.76692897 5.1476698
7.7779498 -0.95037198 5.7634301
7.0097399 -0.60189098 5.1413598
6.63098 -0.47020501 5.1327701
7.0219698 -0.58120197 5.1424398
6.6317902 -0.46275499 5.13168
7.8882599 -0.240997 5.5974102
6.6329198 -0.44403601 5.1303401
7.01615 -0.54419398 5.13555
6.6353202 -0.44073901 5.12956
7.7834301 -0.826069 5.57901
7.0251899 -0.537673 5.1375899
6.63555 -0.435031 5.1290698
6.5925498 -0.398242 5.1297402
6.5914102 -0.39806899 5.1299701
7.0339899 -0.48213699 5.1319599
7.8125501 -0.77207798 5.7557402
6.6378698 -0.38732401 5.1251402
6.6382799 -0.38129199 5.1236501
6.6436901 -0.3809 5.1258302
7.8295698 -0.50486499 5.1191902
7.4169102 -0.453114 5.1438298
6.6454101 -0.35528001 5.1223798
7.0471101 -0.39060101 5.1245399
6.6438999 -0.341059 5.1202898
7.3330402 -0.40896401 5.21417
6.6122799 -0.32593501 5.1266499
6.5699301 -0.32882899 5.1426802
6.72611 -0.34569299 5.1750598
7.0528798 -0.33434001 5.1168499
6.7335601 -0.336191 5.1961002
7.0504398 -0.303386 5.1111898
6.58745 -0.334086 5.2141399
7.18154 -0.35009199 5.23488
7.0474 -0.296065 5.1089802
6.5935998 -0.33276299 5.2178502
6.5980201 -0.33077201 5.2200799
7.0615001 -0.27497101 5.11169
7.1964598 -0.30720499 5.2493801
7.17624 -0.295275 5.2287302
6.6942801 -0.289597 5.1860099
7.6975298 0.34255701 5.3296199
7.8401499 -0.37702599 5.5374498
6.65592 -0.24215101 5.1084299
7.8260698 -0.56074703 5.9330502
6.6564898 -0.24005499 5.10818
7.1447401 -0.28478399 5.28338
6.6619501 -0.229874 5.1080599
6.6634102 -0.21935099 5.1068401
6.6645298 -0.215174 5.1065602
7.8962698 -0.150148 5.2775798
7.06743 -0.216306 5.2209401
6.6611199 -0.20232099 5.1037402
7.05088 -0.210576 5.2172799
6.6863599 -0.235396 5.18715
7.6845198 -0.12543499 5.2289801
7.0467 -0.285658 5.3737001
7.0286598 -0.20689601 5.2210798
6.6615 -0.19096901 5.1008801
7.0767298 -0.132838 5.0996399
7.8392801 -0.167602 5.39188
7.6809402 -0.119781 5.27005
6.6953502 -0.222247 5.18888
7.7163601 -0.15105601 5.3618102
7.6553302 -0.054101702 5.3501902
7.8214502 -0.50539201 5.5533199
6.6679502 -0.156238 5.0969701
7.8635802 -0.26047 5.6623201
7.7161698 -0.129627 5.3874602
6.67347 -0.150592 5.0992799
7.11619 -0.130486 5.22964
6.9909501 -0.162303 5.2409601
7.8902302 -0.232382 5.6810498
7.1090398 -0.119963 5.22963
7.8649998 -0.25012901 5.7293701
7.6784201 -0.101584 5.4156399
7.86482 -0.253506 5.74154
6.6765099 -0.123531 5.09514
7.8646302 -0.248253 5.7459798
6.7301898 -0.15798301 5.1936698
6.7265301 -0.15401401 5.1950102
7.8664198 -0.242037 5.8175802
6.6812801 -0.089500099 5.0908699
6.7581301 -0.136923 5.20261
7.8940701 -0.222359 5.8284798
6.7616501 -0.127606 5.1989799
7.1016502 0.060638499 5.0756102
7.0729899 -0.043045402 5.2230301
7.8708501 -0.234145 5.881
7.8699498 -0.234309 5.8915501
6.68011 -0.056790501 5.0837202
7.8947201 -0.21079899 5.8738599
6.8517098 -0.097508803 5.2256699
7.4295602 -0.098722801 5.4993901
6.68255 -0.047338098 5.08289
7.0581498 -0.017282899 5.22014
6.7740798 -0.34117201 5.1999798
7.8972101 -0.213709 5.9113002
7.8959298 -0.210786 5.9064999
7.8680801 -0.231512 5.9279299
7.4496498 -0.084420703 5.51648
7.8716698 -0.230657 5.9482698
6.8139901 -0.084336199 5.2224598
6.68993 -0.0292465 5.08389
7.0240698 -0.0118222 5.2272902
6.8091202 -0.085812598 5.22505
6.68571 -0.0241198 5.0803399
7.8717799 -0.226117 5.97545
7.8731899 -0.22729599 5.9962001
7.4780202 -0.049750298 5.5504498
7.4437399 -0.029312899 5.5093498
7.3391399 0.215332 5.1238699
7.8983998 -0.201764 5.9839602
7.4787698 -0.044070501 5.55195
7.0173702 0.017981799 5.2271099
6.9629102 -0.020131901 5.2500501
6.9643898 0.0150152 5.2034202
7.87185 -0.223233 6.00352
7.8730798 -0.22296099 6.0082502
6.9482498 0.036033899 5.2038798
6.9527798 0.038235798 5.2067599
7.5001998 -0.0084026298 5.5721402
6.6923599 -0.26209399 5.1828599
7.5065398 0.000927057 5.5762
7.4759102 0.0210489 5.53333
7.4762902 0.026502101 5.5349302
6.94385 0.049109101 5.2070699
7.5133801 0.015822999 5.58181
6.9116101 0.067753099 5.1898999
6.7971401 0.00027902401 5.2151899
7.51794 0.026289601 5.58355
6.5936599 -0.75322098 5.1631799
6.59512 -0.74396998 5.1626401
6.5974998 -0.72342497 5.1602001
6.5994902 -0.68662602 5.1553898
6.9656301 -0.93752599 5.1770101
6.9744401 -0.93725097 5.1809702
6.6058798 -0.66081101 5.1536698
7.7425399 -1.2879 5.6243401
7.7439098 -1.26781 5.6164298
7.8715701 -0.227651 5.96806
7.7445502 -1.24244 5.6157498
6.9847202 -0.80802703 5.16291
6.9860401 -0.80575699 5.1626902
6.61096 -0.59377402 5.1470699
7.8706198 -0.227864 5.9583602
6.9890599 -0.77125603 5.1593299
6.9939899 -0.76172602 5.1630502
6.61765 -0.571684 5.1443801
6.6145201 -0.56829703 5.1439199
7.0020099 -0.73219901 5.1606002
6.9958601 -0.72277701 5.1501098
6.6160798 -0.54887497 5.1422901
6.99963 -0.68788099 5.1500101
7.43751 -0.084646001 5.5109601
6.6198802 -0.51723403 5.1389098
7.0079498 -0.66986799 5.14992
7.7715998 -1.0174201 5.6807399
6.6213102 -0.51223898 5.1385798
7.39323 -0.80952603 5.1529999
7.7736001 -1.01396 5.71663
7.7691498 -0.99311799 5.69174
7.77211 -0.98177302 5.59057
7.0121102 -0.640351 5.1466098
7.7762098 -0.96370298 5.6683798
6.6288199 -0.48675701 5.1354399
7.0171499 -0.61414498 5.14505
6.6250801 -0.47999299 5.13587
7.7762599 -0.921202 5.5843
7.7788301 -0.91410398 5.5892801
7.7800102 -0.89654499 5.5865502
7.7847199 -0.90925503 5.6744399
7.4088702 -0.69744301 5.14642
7.1045599 0.078196302 5.07548
7.86798 -0.23645701 5.8667998
7.2607498 -0.057807799 5.3240199
7.8175998 -0.62489903 5.1317
7.8154001 -0.60126698 5.12883
7.4115 -0.48019999 5.1368999
6.6444402 -0.368837 5.1233802
6.6396198 -0.36184001 5.1213498
7.86587 -0.24230801 5.79983
7.8652701 -0.244269 5.7843199
7.8221102 -0.67581701 5.8572001
6.72966 -0.34570399 5.17451
6.71035 -0.34417999 5.1736002
6.70331 -0.342805 5.1710801
7.3278098 -0.37121499 5.1759901
7.8927398 -0.220837 5.7449698
7.81639 -0.66967303 5.9088101
7.8658199 -0.248071 5.7395601
6.7705302 -0.33772999 5.1968899
7.8907399 -0.228459 5.72334
6.69102 -0.228044 5.1882501
6.6122499 -0.332688 5.2168698
7.1542001 -0.336025 5.2175102
7.89078 -0.23400301 5.6981201
6.6743598 -0.136935 5.0967002
7.8633499 -0.254417 5.70187
7.05585 -0.25049901 5.10672
7.67873 -0.110217 5.37221
7.8661199 -0.25058299 5.6751099
6.6718402 -0.156881 5.0993099
6.7283502 -0.193275 5.1908898
7.1866899 -0.29658499 5.2537999
6.9424801 -0.164139 5.21034
7.88834 -0.233023 5.6375499
7.6928802 0.342347 5.3271499
7.6804399 -0.116064 5.2716198
7.85706 -0.26991299 5.54322
7.7165599 -0.150391 5.3524499
7.74121 -1.2919101 5.61729
7.4253702 -0.042929299 5.49192
7.68507 -0.128406 5.1887698
7.8994799 -0.15625 5.27981
7.7498598 -1.20251 5.6121502
7.78409 -0.14845 5.39325
7.8495798 -0.30699301 5.5345402
7.3783798 -0.91531199 5.1650801
7.7564998 -1.10638 5.7774901
7.4600301 -0.071746998 5.52672
7.7554898 -1.0984401 5.7814498
7.7567902 -1.0949399 5.7771702
7.6802402 -0.114266 5.31777
7.65558 -0.065581299 5.22399
6.7249999 -0.20523401 5.1905198
7.0623798 -0.196271 5.1009698
7.7695398 -1.0070601 5.5914602
7.8640299 -0.25680599 5.6560798
7.01617 -0.63594103 5.1488199
7.7760401 -0.94468802 5.7562399
7.8393002 -0.3748 5.5421801
7.7797298 -0.88749802 5.5852799
7.1828499 -0.28463399 5.2273998
7.8357301 -0.406499 5.5422301
7.3693399 -0.0837963 5.41114
7.4219599 -0.59859401 5.13554
7.8677802 -0.238196 5.8526402
7.4229798 -0.57001299 5.1253099
7.8663201 -0.240208 5.84375
7.0996099 0.0387365 5.0777798
7.0363202 -0.46305701 5.1293898
7.0346398 -0.413867 5.1231499
7.0383401 -0.400839 5.1203098
7.0387101 -0.375119 5.1186399
7.8661799 -0.242139 5.8117099
7.0405998 -0.355634 5.11655
7.6544299 -0.056790199 5.40904
7.0448198 -0.34886801 5.1145301
7.8255501 -0.58335602 5.9226699
7.8731799 -0.22232901 6.0023398
7.8729901 -0.22387899 5.9948201
6.6790299 -0.093164697 5.0939999
6.5910602 -0.77682799 5.1660299
6.5912499 -0.77187502 5.1655002
6.59308 -0.76963001 5.16682
6.5906801 -0.74760902 5.1620798
6.9528699 -1.02766 5.1860399
6.5973601 -0.72687602 5.1612802
6.5934601 -0.71390402 5.1568298
6.5955801 -0.70655799 5.15727
6.9654002 -0.988603 5.1870298
6.5966201 -0.69847101 5.1568999
6.9641199 -0.956806 5.1803899
6.60285 -0.683433 5.15658
6.9617701 -0.94958198 5.1781001
6.6009002 -0.65908998 5.15136
6.9709201 -0.89832097 5.1717501
7.8894801 -0.23127 5.69452
6.6097498 -0.63731402 5.1542602
6.9815502 -0.87830901 5.1760802
7.73879 -1.31738 5.6191602
6.60675 -0.62101197 5.1491199
7.7415199 -1.27666 5.6203399
7.74196 -1.27264 5.6213598
6.9846601 -0.83276302 5.1712799
6.6096201 -0.60250199 5.1473598
7.7442799 -1.25718 5.6192999
6.9829702 -0.80198002 5.1634498
6.98632 -0.79789102 5.1624699
6.6156001 -0.583601 5.1457601
6.61132 -0.57369 5.1437402
6.9949899 -0.78451401 5.1652002
6.6167498 -0.57481998 5.1453199
6.6142001 -0.56399101 5.1434999
6.6128302 -0.55947 5.1419301
7.7516899 -1.15468 5.6083298
7.75561 -1.13088 5.6082301
7.76298 -1.10841 5.6047001
6.6206398 -0.513762 5.1387501
7.0015898 -0.68264502 5.14992
7.3927202 -0.849527 5.1632299
6.6270199 -0.50300002 5.1379299
7.7665801 -1.03202 5.6462102
7.76791 -1.02572 5.7325501
7.7712998 -1.0196 5.7033
7.76933 -1.00555 5.59233
6.6296101 -0.474545 5.1350098
7.77284 -0.98298299 5.7007599
6.6258602 -0.467098 5.1336002
7.7729001 -0.95384699 5.5892401
7.01015 -0.59440202 5.1413798
7.4036899 -0.72500402 5.1437201
7.7775102 -0.94493699 5.7555699
7.4011002 -0.70637 5.1426401
7.0124402 -0.57592702 5.1393399
7.4077101 -0.690503 5.1403098
7.0253501 -0.554977 5.1409502
6.6381602 -0.43142599 5.1304898
6.5946002 -0.38885099 5.1316099
6.6430001 -0.38379601 5.1263199
6.6443701 -0.36339799 5.12433
6.64468 -0.35716799 5.1235399
6.6416898 -0.352106 5.1219602
6.64255 -0.343914 5.1210699
6.5698299 -0.330652 5.1399798
7.41079 -0.45618799 5.1365399
7.3572798 -0.415892 5.1172199
6.6936598 -0.34072 5.1684699
6.7231002 -0.344551 5.1748199
7.0565801 -0.24408799 5.1064701
7.0458598 -0.34011301 5.1142702
6.7267699 -0.335453 5.1951799
6.60919 -0.332178 5.2175398
6.5847301 -0.32873699 5.2147799
6.77038 -0.338653 5.1981702
7.05196 -0.33158201 5.1165099
7.67905 -0.105198 5.4157801
6.6113 -0.32615399 5.22294
7.8697701 -0.23592199 5.8803701
7.1682401 -0.34248 5.2167902
7.1610198 -0.33676401 5.2121601
7.1649299 -0.307183 5.2224998
7.16994 -0.29716501 5.2227702
7.18012 -0.29874799 5.2488899
6.6571202 -0.23392799 5.1095099
6.65838 -0.21846101 5.1077499
7.0619602 -0.20134901 5.1016798
7.0619001 -0.183943 5.1007299
7.6830602 -0.123796 5.2155399
7.88134 -0.252565 5.51052
7.15202 -0.173933 5.2248702
7.8561101 -0.26883501 5.5445299
7.6840601 -0.120937 5.2383499
7.8604002 -0.26790601 5.5523601
7.19976 -0.303909 5.2525601
7.8635001 -0.26251 5.5939398
7.6785202 -0.112507 5.3428001
6.7189598 -0.17103601 5.1933799
7.8887801 -0.23962501 5.6248498
7.86411 -0.25529301 5.6680198
7.8648701 -0.25503799 5.6752701
7.8889999 -0.23158 5.6501899
7.08851 0.0141078 5.07974
7.8903699 -0.22719499 5.7376699
6.76085 -0.12919401 5.2030301
7.8685699 -0.241998 5.7866602
7.8919802 -0.223153 5.8106699
7.1083798 0.086477801 5.0740299
6.8264198 -0.089612901 5.2245598
7.8929501 -0.219496 5.84829
6.6889601 -0.0269522 5.0875101
7.8684402 -0.234512 5.88341
7.4196701 -0.049200799 5.4857898
7.8729801 -0.22855701 5.9415598
7.45679 -0.067329802 5.53234
7.4639702 -0.065239497 5.5374899
6.9605098 0.021582801 5.2031598
7.8716002 -0.227235 5.96453
6.9562702 0.025716599 5.2031498
7.3280602 0.058460001 5.3401899
7.8977799 -0.206017 5.9730101
7.4861398 -0.039779998 5.5559802
7.87116 -0.224244 5.9896498
7.4687901 -0.0137498 5.56359
7.46913 0.0139768 5.5280099
6.9444799 0.054421999 5.2137899
6.7973199 -0.00021475001 5.2136202
7.8666902 -0.248192 5.7428799
6.5966802 -0.056558501 5.1959701
6.5974302 -0.048716199 5.1969099
6.9256601 0.099172898 5.2018299
7.5272198 0.0487688 5.5899901
7.3699698 0.20340399 5.33495
6.82092 0.053188499 5.2161102
6.8697901 0.082359999 5.2309699
6.6929002 0.016868901 5.2084899
6.9310899 0.130922 5.2145901
7.95118 0.32940799 5.5659599
7.7146201 0.39677599 5.3531399
6.7025499 0.0233458 5.21314
6.7645502 0.044477601 5.23104
7.9524798 0.33043501 5.5938301
6.5869098 -0.760234 5.1616101
6.5893998 -0.75178802 5.1620302
6.5948901 -0.74734801 5.1636901
6.59515 -0.74249798 5.1627302
6.5922399 -0.73859203 5.16113
6.9524202 -1.0380599 5.1887898
6.92627 0.13301 5.21558
6.9559598 -1.0017999 5.1845102
7.7116299 0.3946 5.3594699
6.9584198 -0.99250603 5.18327
6.6005101 -0.69944 5.1584101
6.5982399 -0.68909699 5.15589
6.6001101 -0.665627 5.1526699
6.6069698 -0.65205699 5.15381
6.9731998 -0.89081597 5.1733098
7.7407999 -1.32656 5.62603
6.6065202 -0.62635797 5.1497698
6.9759898 -0.860322 5.1697001
6.9776001 -0.84972101 5.1655502
6.9776301 -0.84664601 5.1669202
6.6079702 -0.612598 5.1480999
6.61234 -0.61145902 5.1504202
7.7413802 -1.27674 5.61729
6.61273 -0.60618502 5.1489902
7.7434001 -1.24831 5.6153498
6.6148 -0.59433901 5.1486301
6.6171398 -0.58630502 5.1488099
7.5209098 0.031461801 5.5861301
6.6204901 -0.54830998 5.1427999
6.9959002 -0.72663099 5.1550598
6.6179099 -0.53742802 5.1410098
7.0026102 -0.72392797 5.1584902
7.00038 -0.69148701 5.1510301
7.7630301 -1.0692101 5.6018801
6.6241498 -0.51729703 5.1392202
7.0072098 -0.67598599 5.15204
7.0015602 -0.66703099 5.1490102
7.0103502 -0.655321 5.1505098
6.5946598 -0.061003301 5.2005501
7.7632298 -1.01799 5.6826301
7.48276 0.0308626 5.5359502
6.6288099 -0.482142 5.1358399
7.0071201 -0.62835598 5.1452298
7.7715802 -0.98528099 5.6913099
7.7750502 -0.96582502 5.6633101
7.3600998 0.17760099 5.28231
7.40417 -0.74798203 5.1490698
6.62781 -0.46006101 5.13379
6.63234 -0.45564499 5.1329098
7.4056301 -0.72211099 5.1486402
6.63346 -0.45202699 5.1324902
6.6293302 -0.444758 5.1324801
7.0267301 -0.54555398 5.1396899
7.7831802 -0.84507298 5.5805402
7.0292101 -0.50642103 5.1338401
7.0338402 -0.49490699 5.1347198
7.4222202 -0.58522099 5.12848
6.9454398 0.0371725 5.2048402
7.8998399 -0.20408 5.9813099
7.81107 -0.77142799 5.7498498
7.3899999 -0.50466597 5.1196699
7.4142499 -0.486747 5.1475902
6.6462402 -0.346865 5.1220298
7.30129 0.0319173 5.33988
7.4274902 -0.041144401 5.49265
7.8948002 -0.209417 5.9247398
6.9597001 -0.023994099 5.2468801
6.7792301 -0.34786701 5.1902499
7.8688402 -0.231015 5.9275098
7.34517 -0.400525 5.2167101
7.8178802 -0.65052199 5.7942801
7.8716202 -0.233724 5.9165702
7.0558801 -0.31489399 5.1156001
6.7679901 -0.085713297 5.21806
7.86797 -0.234578 5.8888998
6.6750998 -0.090709798 5.09234
7.8959599 -0.217214 5.8696499
7.16891 -0.32750601 5.2536402
6.77212 -0.086936399 5.2153001
7.0638099 -0.25192001 5.1086798
6.6618199 -0.227853 5.1099801
6.6577902 -0.225584 5.10954
7.1391501 -0.272499 5.2820902
7.87043 -0.23949499 5.8333402
7.0671 -0.302497 5.3607402
6.6661801 -0.196164 5.1058302
7.8696098 -0.239702 5.82728
7.8460999 -0.33123699 5.5356202
6.6933999 -0.223616 5.1880498
7.1020498 0.054369301 5.07689
6.6945801 -0.219524 5.1880202
7.07019 -0.13588899 5.0943699
6.66991 -0.17137399 5.1037102
6.77632 -0.108845 5.2039499
7.8817 -0.25071001 5.4888101
7.8944702 -0.226271 5.7779102
6.7766199 -0.117313 5.2069302
7.8407001 -0.172489 5.37357
7.8663502 -0.244221 5.7829099
6.67243 -0.14562701 5.1002598
6.7347598 -0.181575 5.1938801
6.7182899 -0.173251 5.19349
6.71738 -0.171032 5.1929598
6.6768699 -0.117775 5.0980501
7.8901401 -0.234883 5.7006302
7.95186 0.33048201 5.5708199
7.7389302 -1.32558 5.6231298
7.6953201 0.3387 5.2911601
6.7150002 -0.17940401 5.1926599
7.0051599 -0.712726 5.1573501
7.7605901 -1.0853699 5.6008902
7.0676498 -0.250126 5.3934898
7.5173998 0.016322 5.5855298
7.7628398 -1.0301501 5.6434102
7.76613 -1.01401 5.7406301
7.71662 -0.15063 5.3523798
7.7722802 -0.99391598 5.6921802
7.3927598 -0.77435797 5.1496501
7.3990698 -0.76857299 5.1533499
7.7730899 -0.95342499 5.58599
7.7771502 -0.96297801 5.6672001
7.0198498 -0.60820502 5.1468902
7.01124 -0.58517498 5.14042
7.05581 -0.270601 5.3803201
7.0282898 -0.45623901 5.1277199
7.0436802 -0.28758901 5.37568
7.8125 -0.77091497 5.74716
7.17061 -0.202941 5.22544
7.3929901 -0.50210899 5.12397
7.0331702 -0.433561 5.1243501
7.0357299 -0.39711499 5.1210599
7.8318901 -0.50915402 5.1196799
7.47508 -0.049327899 5.54949
7.87187 -0.224062 5.9702702
7.3723001 -0.081927598 5.41715
7.4584198 -0.072194301 5.5300999
7.89641 -0.21225099 5.9078002
7.1045098 0.077753201 5.0748501
7.1789799 -0.351971 5.2301698
7.8171201 -0.51237798 5.5540299
6.5911999 -0.76802599 5.1655302
7.68153 -0.097082697 5.4260402
6.5925798 -0.76395798 5.1652198
6.5936098 -0.75612199 5.16434
6.9533901 -1.02684 5.1867199
6.5960598 -0.73870403 5.1628299
6.5926399 -0.726013 5.1591702
6.5970602 -0.72519702 5.16187
6.5992899 -0.70917302 5.1596298
6.5997 -0.70761198 5.15978
6.5970201 -0.69703102 5.1568298
6.5981998 -0.68015701 5.15311
6.6031899 -0.67763001 5.1558199
6.9678202 -0.92546999 5.1760802
6.60076 -0.67068201 5.15377
6.60603 -0.657233 5.1550598
7.7367601 -1.33391 5.6246901
6.6036501 -0.646864 5.1506901
6.6087098 -0.64762902 5.15555
7.7402601 -1.31985 5.6255898
6.6051698 -0.636603 5.14996
6.6058002 -0.62952501 5.1490502
6.9830799 -0.81823802 5.1648302
7.7446198 -1.2132 5.6115599
6.9891701 -0.800439 5.1675701
6.9844098 -0.78906202 5.1606998
6.61233 -0.572245 5.1423202
6.6195202 -0.55243999 5.1430101
7.7609501 -1.11777 5.6062899
6.99898 -0.72634 5.1598802
6.6233802 -0.53850001 5.1434302
7.0029101 -0.70953399 5.1558299
7.7614002 -1.0628901 5.5985899
7.7638302 -1.03567 5.62392
6.6222 -0.505808 5.1371398
7.7680202 -1.02443 5.6796398
7.7644801 -1.02197 5.7237701
7.7686701 -1.01057 5.5964298
6.6224899 -0.499832 5.13585
6.62745 -0.49387601 5.1367002
7.0068002 -0.61612499 5.1433902
7.7808599 -0.93886697 5.67275
7.7750702 -0.92589098 5.5862002
6.6264 -0.458451 5.1316099
7.7821798 -0.91460401 5.6729598
6.6289601 -0.44913101 5.1316099
7.7835002 -0.89421701 5.5878801
7.7814298 -0.86641002 5.5819201
7.7832298 -0.84430599 5.5776701
7.7872801 -0.83761197 5.5827198
7.7874999 -0.83288503 5.5805998
7.0203099 -0.49937099 5.1303601
7.7904 -0.77517599 5.5754399
6.6438599 -0.37502301 5.1252298
6.6399298 -0.365159 5.1230302
7.4153299 -0.49878699 5.1463499
7.3944998 -0.48427099 5.1237898
7.3964 -0.44677299 5.1164398
7.3607302 -0.41623801 5.1206298
6.7755399 -0.34969401 5.1908898
7.8191099 -0.664621 5.7932501
6.61868 -0.33097801 5.2184
6.6005998 -0.33021 5.2224798
7.3336301 -0.40944201 5.2132301
7.3413401 -0.389579 5.1641002
7.81429 -0.65215898 5.7930498
7.1771998 -0.34961301 5.2245898
6.6884999 -0.29497999 5.18117
7.0573802 -0.291839 5.1119599
7.8212099 -0.50196397 5.5546699
6.9604001 -0.0239022 5.2501602
7.16745 -0.31259799 5.2211599
7.3179102 -0.34117901 5.2952299
7.1921 -0.31146401 5.25069
6.6919699 -0.26341599 5.1867199
7.1800199 -0.282433 5.22399
7.8324099 -0.42385301 5.5448699
6.7032299 -0.249246 5.1882901
6.6647301 -0.204373 5.1064301
7.8646998 -0.246971 5.7337198
6.6910601 -0.22877499 5.1852198
7.8436399 -0.34348199 5.5348301
6.7252402 -0.207699 5.1943202
6.6650901 -0.16388001 5.1023502
7.0731301 -0.12714601 5.0897002
7.8938899 -0.155909 5.27244
6.7279902 -0.193418 5.19279
7.68116 -0.121279 5.2435298
7.8864799 -0.24690799 5.53162
7.84305 -0.169073 5.3747001
7.8621802 -0.26501 5.5707898
7.6812301 -0.119762 5.2599502
6.74015 -0.174523 5.1974602
7.6735001 -0.090900898 5.2420402
7.8629599 -0.25885001 5.6035099
7.7158899 -0.14769401 5.3658199
7.7172399 -0.12970901 5.3327699
6.7447801 -0.16528 5.1980901
7.8629599 -0.256091 5.64884
7.6792302 -0.106942 5.336
7.6788001 -0.110252 5.3589602
7.2040801 -0.144888 5.3134999
6.75314 -0.140733 5.2011099
7.6814599 -0.103871 5.4061098
6.7577 -0.12757 5.1995502
7.8681698 -0.243221 5.7572398
7.4580202 -0.072398603 5.5313101
7.8889799 -0.22926199 5.7477999
7.8876901 -0.224324 5.7392402
6.6847 -0.052151099 5.09059
6.6785402 -0.049217399 5.0876398
7.8926501 -0.22160099 5.77878
7.8927002 -0.222673 5.7941699
7.9540901 0.33877099 5.6718898
7.8915501 -0.22002999 5.8162198
6.8199701 -0.086781301 5.2232299
7.8701801 -0.23796999 5.8429899
7.3660402 -0.107368 5.4622998
7.09971 0.085368998 5.0715799
6.5608501 -0.051635399 5.0908899
7.89399 -0.21628299 5.8497601
6.57728 -0.043818802 5.0913501
6.56707 -0.047061101 5.0923901
7.4334502 -0.096648999 5.50389
7.4438 -0.090425901 5.5094299
7.8702202 -0.23780499 5.9032402
7.8748202 -0.22908001 5.8978601
7.4499998 -0.081762403 5.5205598
6.5318599 -0.039919998 5.08847
7.89538 -0.205066 5.9056201
7.3052802 0.030744599 5.3393502
6.9503198 0.031684101 5.20328
7.4393501 -0.025403 5.5079198
6.9430599 0.040111899 5.2045498
7.0627398 -0.185994 5.1003399
6.9868202 0.056292199 5.2224698
6.5897598 -0.057498202 5.1963401
6.5606599 -0.060427699 5.1914802
6.5998602 -0.0547668 5.20471
6.54179 -0.0609437 5.1855898
6.91084 0.063249603 5.20086
7.4776001 0.0236311 5.5286102
6.6610599 -0.00350784 5.2052898
7.6936498 0.34293601 5.3573799
7.5429602 0.086528897 5.5950499
6.8738198 0.091324799 5.2326598
7.45432 0.354045 5.2491298
6.84726 0.105551 5.2290401
7.95331 0.33279601 5.5879102
6.7632399 0.0824074 5.2236199
6.9373202 0.152495 5.2462301
6.8923998 0.13413499 5.2451301
7.9513602 0.33727399 5.61654
6.9355502 0.15672401 5.2467699
7.5152302 0.35551301 5.3529301
6.9341998 0.15968101 5.24579
7.9538898 0.33716801 5.6462498
6.9239502 0.16952699 5.2444201
6.58778 -0.76883399 5.1647801
6.5894299 -0.75484502 5.1627202
7.9528499 0.337497 5.6508098
6.9609699 -1.02898 5.1911802
6.9572802 -0.99701798 5.1824698
6.9639702 -0.98087698 5.18787
6.9706101 -0.91602302 5.1743898
6.9746499 -0.88094199 5.1712899
7.74266 -1.26885 5.6210499
6.6073098 -0.61909801 5.1484199
7.4535398 0.35664701 5.2508702
6.9874001 -0.82332897 5.1707602
7.7470899 -1.2022001 5.6114998
6.9877801 -0.78179502 5.1610999
6.9919801 -0.78085399 5.1659198
6.98948 -0.76149797 5.15661
7.00524 -0.69810402 5.1547499
7.0013399 -0.664756 5.1478901
7.0090799 -0.66191697 5.1507201
7.3917799 -0.813241 5.1581202
7.00529 -0.641123 5.14641
7.40066 -0.75546801 5.1515298
7.7805901 -0.90611702 5.6749601
7.7793598 -0.88356799 5.5840802
7.4085598 -0.695391 5.1409702
7.4127498 -0.67962098 5.1445599
7.0198798 -0.53919703 5.1351399
6.6083899 -0.416688 5.1332002
6.6062799 -0.41542 5.12958
6.5927901 -0.392335 5.1314001
7.42241 -0.60442901 5.1328902
6.6370802 -0.38623199 5.1258302
7.0324798 -0.47977301 5.1318698
6.6391301 -0.37370101 5.1241298
6.6430202 -0.37246901 5.1242099
7.4809399 0.0290638 5.5328002
7.0350399 -0.42179599 5.1234398
6.5637798 -0.061535802 5.1944399
6.5921102 -0.33336499 5.2195401
6.6237102 -0.328251 5.2193098
6.59828 -0.058286 5.1988902
7.0537 -0.33126599 5.1171899
7.3249998 -0.371604 5.17694
7.04986 -0.301202 5.1108298
7.1756101 -0.34849301 5.2219
7.3488998 0.22842 5.1256499
7.0608702 -0.27449101 5.11133
6.6606898 -0.237463 5.1103802
7.4808698 -0.044946399 5.5536199
6.6637201 -0.226208 5.1100502
7.4755001 -0.052186899 5.5461302
7.0597901 -0.21895801 5.1034298
7.8701301 -0.22656401 5.95892
7.8343501 -0.404019 5.54249
6.66364 -0.214145 5.10812
7.8951898 -0.209612 5.91786
6.7073998 -0.239306 5.19028
6.68537 -0.236899 5.1841798
7.8397899 -0.37545499 5.5420799
7.8688102 -0.23170599 5.9277501
7.0352998 -0.29100001 5.3699999
6.6985202 -0.214176 5.1866102
7.8487301 -0.314381 5.53444
7.0721202 -0.141339 5.0892701
6.7238302 -0.212274 5.1944599
6.6651502 -0.17071401 5.1023698
6.6733599 -0.152329 5.1033502
6.6719198 -0.151796 5.1020699
7.87218 -0.234448 5.8692298
6.5835199 -0.046954699 5.0922198
7.8610301 -0.26495701 5.6058002
6.6880598 -0.025811899 5.0879698
7.8865199 -0.244213 5.58144
7.7796502 -0.149056 5.3912802
7.8663998 -0.25469601 5.63062
7.84413 -0.34090999 5.5395098
6.7259798 -0.160548 5.1973701
7.6795602 -0.106965 5.3784599
7.1004701 0.040857501 5.0771999
6.67448 -0.0966895 5.0949898
7.8635402 -0.25338101 5.6918402
7.6733799 -0.079967603 5.42557
7.9530501 0.333588 5.5927501
6.8498502 0.114177 5.22932
7.7421298 -1.2646199 5.6191602
7.6817498 -0.104721 5.42348
7.7449899 -1.2377599 5.61726
7.7518101 -1.1508 5.6096501
7.75595 -1.13208 5.6055002
6.70328 0.0281967 5.2134299
6.8710399 0.0824828 5.23242
7.3810902 -0.86011899 5.1599202
7.0068598 -0.67997402 5.1530299
7.0030799 -0.668688 5.1487999
7.0141401 -0.65138102 5.1509399
6.8213801 0.051715199 5.2165298
7.7799301 -0.94590998 5.76192
7.7764101 -0.91334301 5.5862002
7.7782998 -0.89629102 5.5840702
7.5187101 0.0249523 5.5854602
7.7185998 -0.124887 5.3864698
7.8688402 -0.23920301 5.8253002
7.8674998 -0.23909 5.83108
7.51085 0.0144763 5.5809002
7.862 -0.261904 5.6509199
7.1161399 -0.129894 5.2287302
7.4212298 -0.60938799 5.1366501
7.4173198 -0.593481 5.1297798
7.42277 -0.54826301 5.1234798
7.8695998 -0.237737 5.84869
6.7191501 -0.169608 5.1921902
7.0301199 -0.45499501 5.1271501
7.0340199 -0.43189201 5.1245098
7.4233599 -0.107923 5.4897199
7.0434399 -0.41030601 5.1248498
6.76122 -0.0635131 5.17695
7.4117198 -0.458722 5.1333199
7.6807799 -0.116544 5.2821002
7.14675 -0.17781299 5.2291698
7.3271198 0.26126701 5.0888
7.1377201 -0.27343199 5.2809901
7.8968902 -0.216576 5.8698902
7.8993301 -0.206165 5.9800501
7.1663799 -0.30833599 5.2193899
7.0547199 -0.255234 5.1072001
7.1708999 -0.29823601 5.2200699
7.0545802 -0.247743 5.1058502
7.1736598 -0.29609901 5.2232299
6.7225399 -0.211628 5.1929898
7.8699698 -0.231272 5.9602399
7.83671 -0.40123901 5.5468898
7.42625 -0.041811202 5.4895101
7.65201 -0.0570224 5.3976998
6.9566898 -1.01487 5.18398
6.5963302 -0.734074 5.1612902
6.96242 -1.00096 5.1887002
6.9594498 -0.99166799 5.1838102
6.5993299 -0.72327203 5.16153
6.9618301 -0.98255801 5.18224
6.5985098 -0.71573198 5.1596198
6.97153 -0.95204699 5.18367
6.9636102 -0.94511801 5.1774101
6.97154 -0.934973 5.1828599
6.9725599 -0.93044001 5.1804099
6.9721498 -0.90261 5.1732101
7.73734 -1.2984999 5.62324
6.6065302 -0.65970302 5.15553
6.9794302 -0.87155902 5.1760101
7.7420998 -1.24297 5.6171098
7.7442999 -1.21279 5.61304
6.9820499 -0.82451898 5.1623502
6.61169 -0.61517602 5.1497102
6.6078 -0.61337399 5.1462402
6.9860601 -0.81694603 5.1696501
6.9891801 -0.80375499 5.1686201
6.6116199 -0.58804101 5.1442399
7.75529 -1.1262 5.6052599
6.9986401 -0.73598599 5.1603799
6.9998498 -0.70571703 5.1512899
6.6182899 -0.53522497 5.1385999
6.9970198 -0.69822401 5.1523299
6.6231298 -0.52918601 5.14045
6.6195598 -0.525572 5.1368899
7.7667999 -1.01586 5.5961299
6.9965401 -0.682432 5.1507401
6.9985099 -0.67074603 5.1496201
6.6217198 -0.51004702 5.1368499
7.3927798 -0.821666 5.1577401
6.6272202 -0.508223 5.1392798
7.0109601 -0.66013998 5.1518998
7.78053 -0.92734498 5.7465301
6.62602 -0.47187099 5.1311102
7.7778001 -0.90527701 5.5857
6.6262398 -0.465518 5.1296201
7.39884 -0.71517098 5.1440501
7.7821798 -0.87157798 5.5778999
7.0240898 -0.57766098 5.1440101
7.0116 -0.57315302 5.1393099
6.6332598 -0.45111299 5.1316299
7.7842798 -0.82895899 5.57863
7.0288901 -0.529118 5.1374302
6.5907602 -0.39890999 5.1286802
7.0310898 -0.50939697 5.1345201
7.7902799 -0.77290499 5.5725899
7.8086801 -0.74452603 5.7154799
7.8084302 -0.74114603 5.71908
7.027 -0.45018601 5.12602
6.6394401 -0.36926401 5.1227999
6.6464801 -0.350593 5.1220798
7.40836 -0.48408699 5.1443701
6.6474299 -0.346398 5.1224399
7.0609298 -0.27045399 5.37925
7.4009099 -0.45412001 5.1189098
7.87078 -0.239814 5.7915602
7.3213301 0.0617004 5.3380699
7.83079 -0.50517899 5.1195002
7.0376902 -0.368384 5.11655
7.81742 -0.659033 5.8010201
7.8182902 -0.65711302 5.7937398
6.5805802 -0.328628 5.2085199
6.6018801 -0.32961199 5.2216902
6.72121 -0.21462999 5.1933599
6.7614198 -0.335601 5.1930299
6.76439 -0.33368501 5.1935101
6.7571201 -0.33270699 5.1929302
7.0475001 -0.319864 5.11239
7.8199902 -0.496898 5.5499802
7.1503601 -0.338 5.21766
7.8216701 -0.493844 5.5542998
7.0511098 -0.283986 5.1089001
6.6521802 -0.26019901 5.1117001
7.1645999 -0.31949401 5.2228999
7.1955099 -0.30986801 5.25175
6.6889801 -0.268536 5.1870799
6.8875899 0.216519 5.25034
7.31704 -0.32182899 5.3333998
7.1800098 -0.26943299 5.2218099
6.6648302 -0.20731901 5.10636
6.7098298 -0.234542 5.1910801
6.6589699 -0.19957 5.1045699
6.6620002 -0.19500101 5.1050501
6.71735 -0.221347 5.1926398
6.6704798 -0.17036299 5.1038299
7.1595602 -0.18487801 5.2244401
6.67098 -0.16045 5.10322
7.88591 -0.25258499 5.51689
7.1479602 -0.17179599 5.2251401
7.85602 -0.26882601 5.5569201
6.7354698 -0.188361 5.19873
6.7358398 -0.182594 5.1965199
6.9024401 0.214021 5.25915
7.72399 -0.14981 5.3457899
7.6819201 -0.118497 5.2732902
7.8875899 -0.207194 5.5164499
7.8684402 -0.25867099 5.62603
7.7951798 -0.15113699 5.3938699
6.7206001 -0.16667099 5.1943102
7.8865499 -0.242309 5.6065698
6.7269802 -0.151969 5.1942801
7.8903198 -0.23334201 5.6454701
7.8667402 -0.25177601 5.68397
7.8915 -0.228333 5.6889501
7.3208699 -0.135644 5.3649502
7.2922702 -0.116381 5.3348398
6.7611899 -0.12741899 5.2020202
7.6866899 -0.099629797 5.4263101
7.8898101 -0.22795001 5.74546
6.7447801 -0.113686 5.1940999
6.7705102 -0.105988 5.2058401
7.3367801 -0.117211 5.4159298
7.8639202 -0.244332 5.8192401
7.8677602 -0.240905 5.8145499
7.8965001 -0.217171 5.7827001
6.6848602 -0.046666302 5.0912199
7.8696899 -0.239113 5.8405399
7.06145 -0.184462 5.09939
7.1021199 0.056447301 5.0750098
7.2620301 -0.051746499 5.3215299
6.77038 -0.089318603 5.2108302
7.8706198 -0.23609699 5.8632398
6.7602501 -0.061156102 5.1765599
7.4240098 -0.10341 5.4975801
7.8688698 -0.237029 5.89711
7.8716698 -0.23246001 5.8906898
7.1068301 0.090020597 5.0725298
6.5785799 -0.045518201 5.09446
6.5546298 -0.0496342 5.0921302
7.8730302 -0.232969 5.8985
6.57583 -0.043612201 5.0938601
7.8680801 -0.232401 5.9331598
7.8689098 -0.22956599 5.9289899
7.4545898 -0.077266604 5.5268202
