# .PCD v0.7 - Point Cloud Data file format
VERSION 0.7
FIELDS x y z
SIZE 4 4 4
TYPE F F F
COUNT 1 1 1
WIDTH 1560
HEIGHT 1
VIEWPOINT 0 0 0 1 0 0 0
POINTS 1560
DATA ascii
-0.110805 0.28847599 2.79988
-0.086693645 0.28482601 2.7933373
0.18320671 0.2805323 2.7799277
0.21237031 0.27790412 2.7676532
0.59342396 0.27523842 2.7704284
0.60570896 0.273871 2.7640543
0.98550135 0.27462026 2.7637863
1.002862 0.28246942 2.7576294
1.3891674 0.27446535 2.7607179
1.40047 0.29937601 2.7502899
2.3326499 0.27820101 2.79634
2.6928899 0.28351101 2.7911501
2.7260585 0.27827147 2.7956061
-4.4159932 0.33273801 2.7712801
-3.9221766 0.30638966 2.7898133
-0.10817443 0.32871887 2.7972014
-0.084295459 0.32492003 2.7922299
0.18964344 0.32362142 2.7768955
0.21528785 0.32341236 2.7641876
0.54361451 0.32417101 2.787395
0.59001625 0.32146835 2.7689369
0.60813791 0.32908747 2.7606413
0.98585761 0.32458064 2.7603855
1.0067893 0.32505211 2.7557883
1.3928511 0.32603553 2.7576158
1.4025049 0.32857981 2.7519269
2.3132901 0.339405 2.7803099
2.8252974 0.34717476 2.7852225
2.8571899 0.33206701 2.76087
3.1401467 0.34353623 2.7715569
3.1696069 0.33026567 2.7787764
-4.4151502 0.36975974 2.7729275
-4.3793797 0.37077534 2.7760165
-4.0527501 0.359777 2.7562599
-3.9830301 0.36779001 2.77121
-3.8835499 0.36778551 2.7778699
-0.28295168 0.38491499 2.7616665
-0.10889082 0.37414357 2.7957661
-0.083629288 0.38204342 2.7892323
-0.038620401 0.394862 2.77443
0.18974841 0.37976682 2.771982
0.21996249 0.37442863 2.759541
0.58006299 0.37783664 2.7725646
0.61323828 0.37499008 2.7564073
0.9874199 0.36493868 2.758311
1.0060512 0.37000668 2.75267
1.3943529 0.36698782 2.7567077
1.400624 0.38390023 2.7529039
2.3779449 0.35358199 2.7882299
2.737432 0.38484564 2.7746711
2.7671175 0.37027949 2.7735598
2.8055 0.35937235 2.7600167
3.1400599 0.35726398 2.7979751
-0.393929 0.43597499 2.7513299
-0.28207701 0.441755 2.7529099
-0.11039492 0.42385086 2.7932897
-0.082731038 0.4307836 2.791847
-0.031684913 0.42011341 2.7657142
0.17210369 0.41916701 2.7793734
0.22199114 0.42107892 2.7560427
0.54769701 0.444655 2.77842
0.58963919 0.43278962 2.7654362
0.61738962 0.41696909 2.7537806
0.99169415 0.41721132 2.7538736
1.010916 0.41208044 2.751174
1.3973821 0.41999283 2.756758
1.4025832 0.403905 2.7511466
-0.263313 0.462419 2.7716401
-0.23775201 0.45547399 2.79387
-0.111728 0.47834063 2.7904999
-0.082076505 0.47190693 2.7898152
-0.042808201 0.46923301 2.77371
0.19138475 0.48191425 2.77209
0.21878572 0.47308749 2.7602026
0.58455116 0.481682 2.76055
0.61807376 0.46776578 2.7551711
0.98891425 0.46029252 2.7527652
1.0045 0.471347 2.75104
1.40265 0.46623999 2.7534139
-4.4084749 0.51697397 2.7669549
-4.3932867 0.51140922 2.7617979
-4.04426 0.537341 2.79726
-3.9279149 0.53605074 2.7767799
-3.87251 0.53535599 2.7832301
-3.6564701 0.54548401 2.7964301
-0.25866601 0.53358299 2.76107
-0.248666 0.51497501 2.7772801
-0.103741 0.52566499 2.7967999
-0.072323628 0.52320814 2.7902296
0.21750779 0.52837944 2.7554212
0.57861179 0.53467852 2.7612224
0.61354661 0.51903731 2.7560728
-4.40239 0.57732397 2.76666
-4.3993802 0.57216197 2.76511
-3.8961699 0.59067398 2.7571399
-3.8444099 0.59130102 2.7920499
-0.374082 0.57296401 2.7504201
-0.10221434 0.59072167 2.79685
-0.068884537 0.57696933 2.7858872
-0.024499699 0.56700099 2.76634
0.2227065 0.57851517 2.7587099
0.59369034 0.58124131 2.7594268
0.61106199 0.57228398 2.7512801
3.2476201 0.58915502 2.7878399
-4.3831701 0.621804 2.7983301
-4.3026099 0.600842 2.76531
-3.9533501 0.64828002 2.78249
-3.9026799 0.61625999 2.7562699
-3.8900299 0.635553 2.7853899
-3.8186998 0.64482749 2.7752299
-3.7797899 0.62201649 2.77356
-3.7161121 0.63714606 2.7708039
-3.6740301 0.63035953 2.7801549
-3.6251068 0.62679404 2.7840664
-3.5775061 0.62457418 2.7881949
-3.5188799 0.62262702 2.7893701
-3.4263 0.60968101 2.7904301
-0.1008995 0.613738 2.79146
-0.071441486 0.63027072 2.7825558
0.57108098 0.601354 2.77456
0.61587399 0.62140298 2.7511201
3.2161975 0.64161623 2.7648525
-4.42909 0.67617899 2.7723401
-4.3726549 0.67002046 2.7855301
-3.9608631 0.68733263 2.75805
-3.94874 0.65267098 2.7834599
-3.82798 0.69731599 2.7674699
-3.6671534 0.68544269 2.7706165
-3.61342 0.68847001 2.7657599
-3.50144 0.65845102 2.7785399
-3.2664001 0.69802302 2.7950699
-3.2232101 0.67934501 2.77075
-1.2268699 0.69915301 2.7588601
-0.23669399 0.65115201 2.7514999
-0.129877 0.67850554 2.7946749
-0.062763348 0.67444617 2.7764223
-0.038691033 0.66286129 2.7700036
0.231883 0.65292698 2.7569001
0.59962398 0.65309697 2.75876
0.65679598 0.66610599 2.76984
3.1936433 0.67931998 2.7749245
3.2086649 0.66469598 2.7626951
-3.90277 0.72167701 2.7585101
-3.8013301 0.72445202 2.77071
-3.7952399 0.73178202 2.75895
-3.23067 0.717493 2.795675
-1.28977 0.71409702 2.7966199
-1.1129301 0.71722198 2.7947099
-1.0334001 0.70575303 2.7630601
-0.20750999 0.73573399 2.76086
-0.153906 0.72581202 2.7973399
-0.14622349 0.72737205 2.7971101
-0.061202385 0.71631145 2.778311
-0.046984728 0.72668755 2.7709427
0.67459202 0.716236 2.76441
3.11462 0.74545997 2.77809
3.18171 0.70459902 2.7586401
3.2430799 0.73508298 2.77072
-4.2776299 0.77890122 2.7559876
-3.88711 0.77731597 2.77545
-3.8197 0.772551 2.7681768
-3.790585 0.77863401 2.75278
-3.3130302 0.77544564 2.78387
-3.2753 0.7623685 2.7929649
-3.2352078 0.76275539 2.78632
-3.04585 0.77571201 2.7567501
-2.7664051 0.777426 2.793215
-1.4238451 0.7976405 2.7513251
-1.34561 0.79101199 2.75278
-1.26125 0.79854202 2.75263
-1.2165376 0.77803123 2.7827401
-1.15925 0.75788999 2.7567201
-1.0642989 0.76891404 2.7798615
-1.0414022 0.76570231 2.7824099
-0.17819799 0.79228598 2.7570601
-0.110696 0.77974921 2.7603676
-0.069310434 0.76665026 2.7598946
-0.042696752 0.768646 2.7654219
0.220789 0.765275 2.7567401
0.67549199 0.77332151 2.7581201
-3.3529799 0.84182698 2.7891901
-3.3355126 0.82464772 2.7805874
-3.2695251 0.83844101 2.7592599
-3.2301812 0.82530665 2.7627673
-3.16559 0.819152 2.75669
-3.0848701 0.81349099 2.75108
-1.5504 0.84488899 2.7933199
-1.5366701 0.83905071 2.7884648
-1.4754349 0.81425428 2.7645082
-1.4315585 0.80393791 2.7625656
-1.3417251 0.80865347 2.7716398
-1.20347 0.82310599 2.7600601
-1.11595 0.81769103 2.79181
-3.29514 0.88060546 2.7594199
-2.73297 0.88004303 2.75159
-1.5528951 0.86566252 2.78739
-1.5367531 0.86967707 2.780302
-1.0068099 0.87963599 2.76332
-0.98587173 0.89414173 2.7568126
-2.74666 0.92574602 2.7511899
-1.0031133 0.92172736 2.7721634
-0.98662275 0.90537345 2.7633729
-1.51478 0.95567799 2.7831399
-0.94372451 0.98429203 2.75384
0.16847099 0.98861301 2.7683001
0.38771701 0.99607903 2.7592299
0.44622099 0.98462403 2.7501099
0.47360799 0.98401201 2.75405
0.50172102 0.98533398 2.76721
0.56755102 0.975425 2.7642801
0.68215501 0.97715151 2.7554049
0.743716 0.95739299 2.76683
1.0172499 0.98125398 2.7625501
-1.92256 1.0407799 2.7946501
-0.92141801 1.02556 2.7750499
0.47623399 1.02547 2.75577
0.59937298 1.0041699 2.75049
0.68436199 1.00595 2.7762401
-1.92252 1.05165 2.79458
-1.49637 1.07455 2.78527
-0.012229355 1.0755036 2.7587295
0.013245514 1.0709302 2.7808993
-1.97752 1.1404999 2.7996399
-1.4837949 1.12025 2.769145
-1.41945 1.13995 2.7873299
-0.10859172 1.1172401 2.7687938
-2.0638399 1.1804 2.75934
-1.96785 1.17686 2.7906651
-1.9442 1.19104 2.7930551
-1.791675 1.19787 2.7813601
-1.70033 1.19499 2.7646699
-1.486356 1.1688761 2.774632
-1.40422 1.1840301 2.7670701
-0.15959001 1.16026 2.7894001
-0.12673734 1.1562101 2.7794101
-2.1358199 1.2496901 2.7597101
-2.0625 1.24207 2.7569799
-1.95943 1.20344 2.7731299
-1.9322573 1.2314734 2.7821538
-1.8671666 1.2167801 2.7667634
-1.8320061 1.2257719 2.7726061
-1.77432 1.2227501 2.7738266
-1.7259074 1.2270124 2.7752399
-1.6803401 1.21452 2.77315
-1.6062 1.211125 2.7820201
-1.5877266 1.21487 2.7672901
-1.50697 1.20697 2.7636499
-1.4936634 1.23395 2.7728431
-2.10428 1.2835799 2.7523201
-2.0724399 1.2825066 2.7525532
-2.0203764 1.29254 2.7576234
-1.9780115 1.2797124 2.7714975
-1.9320381 1.2713039 2.7824821
-1.862045 1.267735 2.7917399
-1.77318 1.25456 2.79846
-1.4714949 1.26245 2.765795
-2.0990601 1.31563 2.7677901
-2.02563 1.30454 2.75913
1.57175 -1.4680001 2.84778
-0.39356601 -1.4146301 2.8259301
-0.33693567 -1.4126201 2.8383801
-0.275433 -1.43214 2.8289599
1.51535 -1.43413 2.8059299
1.55344 -1.40327 2.80656
-1.07083 -1.36078 2.84991
-0.999228 -1.35145 2.82812
-0.85178798 -1.36976 2.8353701
-0.82874399 -1.3537866 2.8303134
-0.78640032 -1.3667799 2.8359869
-0.74506402 -1.37234 2.8108499
-0.67333716 -1.369295 2.8360116
-0.582331 -1.3703721 2.8323801
-0.49105299 -1.3631901 2.80404
-0.43157101 -1.37348 2.8069301
-0.32923201 -1.38149 2.8048601
1.4896801 -1.39574 2.8496499
1.54109 -1.39464 2.8025501
-1.60228 -1.3087 2.8286099
-1.5820301 -1.30038 2.84887
-1.2721699 -1.32809 2.8220601
-1.24718 -1.31299 2.8148501
-1.1511149 -1.3150051 2.841085
-1.10971 -1.31111 2.8224101
-1.05226 -1.30932 2.8329401
-1.00138 -1.31025 2.8025801
-0.97379124 -1.3160975 2.8173699
-0.85806102 -1.34723 2.8378
-0.83711249 -1.339705 2.824945
-0.369885 -1.33521 2.8454499
-0.288636 -1.33088 2.80445
-1.91435 -1.26095 2.82938
-1.8660034 -1.2521567 2.8110435
-1.7742399 -1.263456 2.8450081
-1.71032 -1.27897 2.8452101
-1.6743649 -1.2791317 2.8374767
-1.5667583 -1.2710333 2.8436067
-1.5440034 -1.26824 2.837723
-1.4461 -1.2714 2.80374
-1.3814 -1.28139 2.8436
-1.3403 -1.274485 2.83006
-1.28742 -1.27406 2.8404601
-1.22614 -1.27757 2.8025801
-1.18203 -1.28716 2.8136301
-1.0554399 -1.29555 2.8208399
-0.46774817 -1.255614 2.8397839
-0.41781059 -1.2584171 2.8361785
-0.36601999 -1.2665451 2.8377476
-0.32901707 -1.2666973 2.8387392
-0.28033018 -1.2705619 2.8314719
-0.21653356 -1.2752055 2.8261602
-0.18922903 -1.2728835 2.8300734
-2.2829633 -1.2087001 2.8230903
-2.2112935 -1.2039633 2.8424168
-2.1835067 -1.2175112 2.8316133
-2.0774162 -1.2239087 2.825721
-2.0420849 -1.2077 2.81863
-1.9724951 -1.2374375 2.8257787
-1.8726578 -1.2414246 2.8270557
-1.835955 -1.23037 2.8336501
-1.7712368 -1.2389599 2.8292768
-1.70025 -1.22708 2.8213301
-1.6719525 -1.2341375 2.8190227
-1.54285 -1.2491699 2.8187001
-1.4635299 -1.23628 2.84586
-1.4340326 -1.23677 2.8309898
-1.3763 -1.24289 2.8073599
-1.3498501 -1.23553 2.8415301
-1.00801 -1.20567 2.83533
-0.98421001 -1.20138 2.83638
-0.928137 -1.2014101 2.82707
-0.87081051 -1.2057099 2.8273602
-0.80439901 -1.21141 2.8157201
-0.77841359 -1.2169434 2.8346531
-0.71984577 -1.2144182 2.818938
-0.68321371 -1.2220399 2.8256867
-0.63759297 -1.2229117 2.8241065
-0.58282495 -1.23566 2.8349435
-0.52617997 -1.2362 2.8135967
-0.46574074 -1.2437 2.8322852
-0.42813301 -1.2449366 2.82201
-0.2079995 -1.236205 2.8094101
-0.1830005 -1.2434551 2.8182018
-2.9274499 -1.1655999 2.8443601
-2.8103149 -1.1576049 2.8303101
-2.7141976 -1.1702944 2.8419487
-2.69049 -1.1587625 2.8225002
-2.6156075 -1.169785 2.83915
-2.5992 -1.17005 2.8496499
-2.52332 -1.1695175 2.8399825
-2.4881899 -1.1707875 2.8274076
-2.4248526 -1.17941 2.8260801
-2.3702202 -1.18449 2.8187599
-2.2799275 -1.1959876 2.8190875
-2.21929 -1.19276 2.81548
-1.27096 -1.1726201 2.8368001
-1.00262 -1.1728801 2.80109
-0.9870283 -1.1830133 2.8120365
-0.92155081 -1.184505 2.8125174
-0.88073736 -1.18779 2.8101299
-0.82285303 -1.19226 2.8015001
-0.75848299 -1.19828 2.8055601
-0.200615 -1.15343 2.8380301
-0.172049 -1.156335 2.84111
-3.4261601 -1.10045 2.8116801
-3.3268099 -1.1096001 2.822015
-3.2131829 -1.1103557 2.8252771
-3.1889601 -1.10787 2.8034101
-3.1181443 -1.1144285 2.8333642
-3.0890634 -1.1083367 2.816
-3.0278399 -1.133414 2.8288579
-2.9837101 -1.1260029 2.8349757
-2.9218049 -1.1378801 2.8427148
-2.8828027 -1.1268775 2.8203862
-2.80618 -1.14264 2.8489501
-2.7777543 -1.1340743 2.8246143
-2.6654141 -1.1406139 2.8179519
-2.62099 -1.14613 2.84583
-2.51755 -1.1447999 2.80936
-2.48929 -1.10962 2.8046701
-1.9057 -1.11815 2.8488901
-1.87594 -1.10579 2.8190701
-1.53234 -1.1177901 2.8315232
-1.26965 -1.1328599 2.83968
-1.07582 -1.10209 2.82072
-0.97374499 -1.10454 2.8440001
-0.20569 -1.12226 2.82955
-0.18566133 -1.1411 2.81515
-3.8257699 -1.05084 2.81182
-3.7285562 -1.054858 2.8216801
-3.6501999 -1.08655 2.82002
-3.6292853 -1.0670245 2.8223226
-3.58935 -1.09795 2.84305
-3.5202458 -1.0682008 2.8214817
-3.4155149 -1.0716916 2.8217952
-3.3952899 -1.07052 2.80986
-3.3168838 -1.087873 2.8310719
-3.2932565 -1.08454 2.8201969
-3.2175961 -1.080476 2.837872
-3.18889 -1.099355 2.8023648
-3.1147699 -1.09957 2.8394499
-3.0472901 -1.0528001 2.8219399
-2.9646101 -1.07517 2.8259001
-2.8422301 -1.07929 2.8332901
-2.6180949 -1.096195 2.8259201
-2.53455 -1.05141 2.83619
-2.4292002 -1.057445 2.8381948
-2.1694701 -1.05283 2.8041301
-2.1240666 -1.0772933 2.8226864
-2.0833302 -1.0740199 2.810575
-2.0196249 -1.07981 2.8099468
-1.9768801 -1.0860801 2.8111236
-1.91019 -1.08346 2.8108001
-1.88304 -1.0929351 2.8085999
-1.84752 -1.09886 2.82709
-1.578914 -1.0676117 2.8302066
-1.5459399 -1.09295 2.8298666
-1.3325601 -1.0597301 2.8081799
-1.28427 -1.08472 2.8038599
-1.2102599 -1.063615 2.839175
-1.174372 -1.071012 2.8320079
-1.1206366 -1.07382 2.8313167
-1.0676972 -1.0786786 2.83409
-1.0206722 -1.0690634 2.8252225
-0.99035043 -1.06796 2.8443367
-3.9544549 -1.034905 2.8288751
-3.9335899 -1.0284712 2.8180339
-3.8231773 -1.0261163 2.8184853
-3.7220049 -1.0324249 2.8256199
-3.62326 -1.045788 2.841126
-3.46434 -1.01009 2.8231499
-3.4199574 -1.0246525 2.8273726
-3.3062899 -1.02265 2.81283
-3.2763999 -1.0295033 2.8150234
-3.2380149 -1.03503 2.8289599
-3.1166 -1.04251 2.8117001
-2.7110801 -1.00158 2.8131001
-2.6933436 -1.0122713 2.8110726
-2.47982 -1.04312 2.82762
-2.3464501 -1.0436 2.8083
-2.2611499 -1.04246 2.8026299
-1.8053701 -1.0404 2.8470399
-1.78145 -1.0174725 2.8400803
-1.71597 -1.00842 2.8327177
-1.6615 -1.0467 2.8342152
-1.6372725 -1.034135 2.8371952
-1.589595 -1.037855 2.81849
-1.51131 -1.0128599 2.8445699
-1.4837101 -1.01976 2.8189101
-1.35827 -1.0489 2.8429301
-1.34233 -1.02861 2.8392601
-1.2849399 -1.0219966 2.8274333
-1.2218 -1.02667 2.831073
-1.1820433 -1.0354366 2.8434899
-1.14886 -1.01982 2.8282499
-1.0158849 -1.0379859 2.835814
-0.98933965 -1.0178633 2.8244965
-4.1752801 -0.957219 2.84919
-4.1300263 -0.99243098 2.81073
-4.0824151 -0.98174298 2.8314099
-4.0211697 -0.98008597 2.8264251
-3.9853101 -0.98605198 2.8478601
-3.92046 -0.97815752 2.831135
-3.8375349 -0.99436498 2.84549
-3.59024 -0.99280298 2.8494501
-2.7049699 -0.97735 2.8073599
-2.6940801 -0.97581297 2.8096499
-1.853412 -0.95844936 2.8120837
-1.8265563 -0.9696402 2.8095853
-1.786025 -0.99505699 2.838675
-1.74733 -0.99698901 2.8224699
-1.60923 -0.98624098 2.832865
-1.35102 -0.95202202 2.83868
-1.2096 -0.99547303 2.82077
-0.96880299 -0.97823399 2.8498499
-1.85364 -0.91389298 2.83792
-1.8215841 -0.94391841 2.8198521
-1.61764 -0.91734803 2.8224001
-2.6579232 -0.86761397 2.8088467
-2.64417 -0.86197102 2.81218
-1.86634 -0.89587802 2.8308001
0.71307802 -0.87859201 2.80773
0.77774 -0.8976 2.8089499
-4.35393 -0.83035398 2.80545
-2.6696625 -0.82866961 2.822655
-2.6452 -0.81607002 2.80972
0.16607299 -0.80104703 2.8119099
0.240254 -0.80968297 2.826345
0.36658499 -0.82476997 2.8020599
0.407206 -0.84100598 2.84479
-4.3658051 -0.76297098 2.8204298
-4.3263149 -0.75408804 2.8209801
-4.0005498 -0.774279 2.82686
-3.8659701 -0.7547735 2.8317499
-4.35674 -0.73320001 2.80896
-4.3186302 -0.73043847 2.8226399
-4.2826538 -0.7231136 2.8302181
-3.97019 -0.72146654 2.81604
-3.9381101 -0.73490399 2.8147299
-3.86426 -0.73459399 2.8413401
-3.5607901 -0.71974403 2.8294001
-3.52003 -0.71086401 2.84952
0.015775699 -0.731839 2.83373
0.73276597 -0.74602503 2.81587
-4.2740402 -0.69300199 2.8431201
-4.2065501 -0.67130202 2.8475101
-3.9352167 -0.68464738 2.8131034
-3.8548334 -0.668715 2.8207567
-3.8246233 -0.66431469 2.8186233
-3.7954299 -0.66328502 2.82481
-3.57465 -0.677917 2.8389499
-3.5333123 -0.67742836 2.8347943
-0.0142654 -0.65305197 2.8141799
0.157084 -0.67830002 2.84953
-4.4268398 -0.64437598 2.8220301
-4.3631501 -0.63134885 2.8146935
-4.3361063 -0.61041945 2.8257098
-4.2615266 -0.64030296 2.8429167
-4.24787 -0.642591 2.83671
-3.8145299 -0.649836 2.81528
-0.45174599 -0.60565102 2.81128
-0.42848164 -0.63096386 2.8176913
-0.391004 -0.6195035 2.8343701
-0.30810535 -0.63574928 2.8313999
0.052110799 -0.601704 2.8329599
-4.3512602 -0.56756699 2.8272901
-4.3306947 -0.595451 2.8207049
-4.2755599 -0.59976602 2.8361299
-0.51838201 -0.58313 2.80019
-0.46890101 -0.58086199 2.83342
-0.445133 -0.57275701 2.84288
-0.075236998 -0.58289754 2.8199601
0.039276302 -0.55062598 2.81585
0.092104897 -0.55246001 2.84587
0.87679642 -0.56913477 2.8416438
0.9226675 -0.577362 2.8170199
-0.37988067 -0.50729334 2.8143599
-0.32418349 -0.5480215 2.804265
-0.27954099 -0.540479 2.84185
-0.209628 -0.53056455 2.8316851
-0.18481934 -0.53136498 2.8304865
0.094001949 -0.515158 2.8473899
0.127672 -0.54593301 2.8415
0.88537508 -0.52443415 2.838681
0.911331 -0.52454299 2.8232367
0.0398844 -0.46408099 2.80407
0.092621997 -0.47430301 2.845295
0.88686591 -0.47291881 2.8365071
0.90517062 -0.47920838 2.8313382
-0.41259697 -0.41672537 2.8149998
-0.38708001 -0.401757 2.815475
-0.33935499 -0.418486 2.82143
-0.26631498 -0.40682968 2.8174951
-0.23647386 -0.40448824 2.8341787
0.094741367 -0.41410065 2.8448267
0.1022185 -0.4439185 2.8460801
0.89104259 -0.4200978 2.8316965
0.91225731 -0.41590163 2.8251667
-0.40407732 -0.368536 2.8170135
-0.3750892 -0.37708277 2.8258519
-0.3257145 -0.38031852 2.834775
-0.27466714 -0.38679886 2.825135
-0.23129639 -0.38567379 2.8252182
0.093745321 -0.37617022 2.8416779
0.115335 -0.36791697 2.8391399
0.167621 -0.37723801 2.81511
0.89412504 -0.37027088 2.8289199
0.91291666 -0.37504438 2.824625
1.31108 -0.36257866 2.8117733
-0.36451566 -0.31652233 2.8282633
-0.34215701 -0.31742999 2.848
0.091981664 -0.3254256 2.8435459
0.11166127 -0.31625226 2.8392882
0.89187068 -0.32353702 2.8294165
0.91923785 -0.32621443 2.8202951
1.3162222 -0.31995293 2.8114381
5.1075034 -0.31099132 2.8433867
-0.36946219 -0.26475438 2.8132062
-0.327528 -0.274627 2.8383851
0.095776901 -0.27391851 2.8382349
0.11911256 -0.27042776 2.8332059
0.52686399 -0.26923519 2.8270459
0.89443839 -0.28357857 2.82689
0.92550355 -0.27577415 2.8144939
1.3236485 -0.27411255 2.8090041
4.3097868 -0.27500886 2.8475335
5.1102338 -0.27405536 2.8405275
-0.3708981 -0.22434455 2.8192108
-0.34134832 -0.21761835 2.8214366
-0.16465101 -0.209308 2.84988
-0.147159 -0.23416799 2.8455901
0.097671501 -0.2334325 2.8450699
0.12323243 -0.22089303 2.8283145
0.18541101 -0.210485 2.8022001
0.53582662 -0.22365825 2.8185384
0.60558301 -0.234229 2.82617
0.89774436 -0.22575833 2.8259566
0.92979044 -0.22422646 2.8103702
1.3281609 -0.22489105 2.8062029
4.3303638 -0.22611775 2.8453188
5.0809603 -0.2164395 2.8418951
5.1162028 -0.223123 2.8359981
-0.36735508 -0.18850723 2.8124669
-0.33253041 -0.1529614 2.8371282
-0.175687 -0.15961599 2.8439467
-0.13375799 -0.151426 2.8492
0.12584764 -0.17005582 2.8259945
0.53992158 -0.17464206 2.8123527
0.55386919 -0.1634485 2.8079681
0.9321683 -0.17540573 2.8067081
1.3305011 -0.17621335 2.8045065
4.3451943 -0.1849376 2.8434179
4.3525529 -0.17061602 2.8428497
5.1226735 -0.17339328 2.8299348
-0.40097001 -0.13119701 2.80862
-0.35593373 -0.12932897 2.8138528
-0.3429721 -0.13421309 2.8276858
-0.16543201 -0.11629013 2.8447664
-0.13014334 -0.11411345 2.838558
0.13300821 -0.12436962 2.8209872
0.15563987 -0.12241599 2.8100674
0.546942 -0.11354234 2.80603
0.55662555 -0.11979467 2.8042176
0.93120056 -0.12787858 2.8054564
0.95829874 -0.1232905 2.8132424
1.3339999 -0.1314795 2.8041201
4.3552322 -0.12356701 2.838984
5.1277413 -0.123781 2.8245177
-0.3520734 -0.085976399 2.8130701
-0.34186879 -0.068639681 2.812026
-0.29401001 -0.054248001 2.84641
-0.1686348 -0.076146498 2.841835
-0.13096653 -0.074167125 2.8312173
0.13470863 -0.075686082 2.819032
0.16111705 -0.07521461 2.8059916
0.54291624 -0.08765357 2.8064575
0.55749422 -0.080585375 2.8028145
0.92810637 -0.081924126 2.8056493
0.95245302 -0.082010098 2.80092
1.3361632 -0.074146315 2.80674
4.3578057 -0.0791803 2.8348827
5.1327167 -0.076217957 2.8185465
5.1538301 -0.090853699 2.8498299
-0.33476424 -0.025547786 2.8166761
-0.16641715 -0.026366409 2.8413978
-0.13270491 -0.017672038 2.8290629
-0.089037701 -0.026369801 2.82038
0.1354771 -0.025953433 2.8168352
0.1588311 -0.024671964 2.8068483
0.55699885 -0.032650318 2.8032341
0.92422152 -0.02413293 2.8052332
1.04017 -0.017100001 2.8038199
1.3406301 -0.035172749 2.8045502
2.24348 -0.0222503 2.8457501
4.2937002 -0.0120674 2.8434248
4.3230681 -0.010191252 2.8301351
4.3608999 -0.029624507 2.8299527
5.1423321 -0.026670158 2.8189301
5.1605749 -0.01466789 2.8348601
-4.4604135 0.014083796 2.8346744
-0.41282099 0.0279516 2.8461599
-0.3614555 0.031167351 2.8122249
-0.32394403 0.025341799 2.8220415
-0.15969108 0.025591932 2.8364046
-0.12682261 0.027990444 2.8290544
0.14232226 0.013196552 2.8139563
0.15910544 0.014934977 2.8044498
0.92826533 0.022281775 2.8027833
0.99282801 0.02750417 2.8291099
1.34916 0.023023 2.8003399
1.3706701 0.030135775 2.8056149
4.3723803 0.01189138 2.8267899
5.14434 0.0075343498 2.80756
5.1628051 0.017104549 2.8281951
-4.0476599 0.057073601 2.8001001
-3.9276299 0.05885135 2.8396802
-0.281789 0.075629301 2.83126
-0.16081473 0.072413668 2.830004
-0.12830378 0.075035356 2.8259914
0.142736 0.070552379 2.813776
0.15742521 0.073900238 2.8051801
0.55217099 0.059990499 2.8001299
0.9260627 0.066064999 2.8041451
1.370525 0.069933049 2.8228199
-4.4348102 0.135673 2.8489599
-4.01441 0.100444 2.8020799
-3.88515 0.13373899 2.8117299
-0.15472749 0.11721634 2.8258102
-0.1241497 0.12554047 2.8241656
-0.093062602 0.129894 2.809135
0.16117799 0.104544 2.8100801
-4.4623652 0.1779605 2.8445749
-4.4353065 0.16866767 2.8324282
-4.0147099 0.183258 2.8466499
-3.919075 0.1658345 2.8220525
-3.88673 0.163046 2.8342299
-3.83218 0.17576002 2.8340633
-0.236698 0.19138201 2.84921
-0.15284267 0.179802 2.8212032
-0.12036784 0.17284144 2.8177018
-0.095237955 0.15939 2.8103151
0.152578 0.151776 2.80463
0.5340364 0.1663264 2.8042181
0.550919 0.18030401 2.80089
-4.4320951 0.22898999 2.8484626
-0.28812599 0.20495901 2.8025999
-0.15984499 0.22295099 2.8272374
-0.11728103 0.22569391 2.8147681
-0.097495861 0.23261841 2.8088322
1.02163 0.24764 2.8092599
2.7172427 0.24042088 2.8304491
2.7566233 0.23442245 2.8376937
2.82268 0.232243 2.8226199
-4.4292994 0.27203649 2.844336
-0.11791246 0.27350423 2.8105667
-0.096878886 0.27700967 2.8120041
1.027395 0.28422451 2.806555
2.326396 0.277421 2.8310857
2.68241 0.290295 2.8320301
2.7356839 0.25927776 2.8117809
2.7634814 0.27325386 2.809937
-4.4176898 0.31605101 2.84742
-4.09936 0.30567601 2.8093901
-3.9626701 0.31681699 2.8478501
-3.92612 0.3053965 2.82284
-3.8870101 0.30934799 2.8309801
-0.11747703 0.31981808 2.808322
-0.094576411 0.3282572 2.8099325
1.01736 0.3152 2.8097401
2.4024999 0.34639499 2.82271
2.7372789 0.32218534 2.8206289
2.7553678 0.32809752 2.8371153
2.83792 0.342089 2.8250501
3.13886 0.34843501 2.83566
3.177213 0.33620933 2.8244765
-4.4237704 0.37299082 2.8338034
-3.9270401 0.37270901 2.8336599
-0.11349941 0.37693274 2.8075759
-0.088188224 0.37897074 2.8049691
2.33725 0.354489 2.8032999
2.3736525 0.37930551 2.8282299
2.7246599 0.39256099 2.8048301
2.7666929 0.37243286 2.8172855
2.8167913 0.35693976 2.8253262
3.1445749 0.35543078 2.83055
3.16324 0.36131799 2.84672
-4.00035 0.424059 2.8485
-0.11942039 0.41621298 2.807282
-0.08455541 0.42109758 2.8037241
2.3226099 0.40720999 2.84409
-0.21084701 0.48784301 2.8213699
-0.14218999 0.47870499 2.81393
-0.091701418 0.47097775 2.8047724
-4.4127154 0.52575248 2.8286283
-4.393682 0.53948516 2.820662
-4.0220098 0.54632598 2.8485401
-3.98102 0.53062302 2.8046701
-3.9117999 0.52916998 2.8049901
-3.8884499 0.52673399 2.8432801
-0.11397971 0.52033073 2.8073714
-0.093477637 0.52380532 2.8054934
-4.4194331 0.57019502 2.8323267
-4.39116 0.57552028 2.819705
-4.0550499 0.57477701 2.8008399
-4.0459299 0.55580997 2.8011899
-0.11975967 0.58222198 2.80667
-0.095174052 0.57773054 2.8022251
-4.405376 0.62003678 2.830148
-4.3893499 0.6185621 2.8175082
-4.0616202 0.63933599 2.8345101
-3.9777825 0.61661452 2.8318849
-3.873148 0.61465895 2.8283877
-3.6754501 0.63731998 2.83097
-3.52317 0.62764001 2.8148398
-3.4844201 0.62345499 2.80775
-2.7084899 0.64712203 2.8471301
-0.17672201 0.61042798 2.8236699
-0.11741899 0.61902773 2.8075249
-0.099352397 0.61877102 2.80247
3.24121 0.64103949 2.80688
-4.4014735 0.668423 2.8205099
-4.3775449 0.66493386 2.80917
-3.95453 0.6575405 2.80934
-3.2656898 0.68560898 2.8264952
-3.24404 0.69330049 2.8353848
-3.1741951 0.69026798 2.82359
-3.1482501 0.693483 2.8134999
-2.7553051 0.68579495 2.8348751
-2.7410026 0.68905097 2.8323426
-2.6625133 0.69511366 2.8367701
-0.181705 0.66569698 2.81285
-0.0897673 0.69515699 2.8043301
3.1941333 0.68751246 2.8202686
3.2122426 0.68183643 2.8275087
-3.8741801 0.71645999 2.83215
-3.3752251 0.72955751 2.817275
-3.3232999 0.72851276 2.8120751
-3.2743638 0.72330779 2.8230138
-3.2232652 0.74198902 2.8158951
-3.1935401 0.70365697 2.82214
-3.1480801 0.70840502 2.8015201
-2.7038 0.74081099 2.81515
-2.6803067 0.7308796 2.8238666
-1.3593 0.7373215 2.837225
-1.3156201 0.72679901 2.8387134
-1.270633 0.71868277 2.826654
-1.2217216 0.72158366 2.8366344
-1.1932567 0.73542929 2.82199
-1.0233401 0.73801231 2.83955
-0.1687195 0.72417152 2.8092999
3.1387 0.73427099 2.8414099
3.1846199 0.71800053 2.8143148
-3.3421049 0.77488053 2.8151999
-3.2791152 0.76254302 2.8048749
-2.69994 0.75165099 2.81863
-1.40426 0.79897898 2.8454101
-1.38696 0.78106201 2.8487201
-1.3319875 0.79066223 2.8383751
-1.2921524 0.77939171 2.8342476
-1.2219651 0.77620119 2.8259025
-1.1693799 0.76405001 2.8146701
-1.1261734 0.7616927 2.8339567
-1.05762 0.75202298 2.8454101
-1.0201263 0.76373917 2.839256
-0.99514401 0.79360002 2.84882
-0.191679 0.76741898 2.8052599
3.2918401 0.76613802 2.8352699
-1.520261 0.83020461 2.82218
-1.4697599 0.83296102 2.8157899
-1.36665 0.83113003 2.8091099
-1.33917 0.80138397 2.8469999
-0.98481101 0.8122465 2.84901
-1.5267501 0.86461496 2.8190498
-0.98238623 0.87899673 2.8146951
-1.93074 0.90213001 2.8385301
-1.52915 0.936297 2.80813
0.303891 0.93492448 2.8097
-1.92974 0.99557698 2.8209801
0.30479801 0.98115802 2.8048
-2.0095799 1.02315 2.8330767
-1.9952199 1.04373 2.84988
-1.92693 1.02674 2.80759
-1.4927 1.01184 2.8257899
0.0557594 1.0445 2.81566
-1.9733067 1.0877467 2.8423634
-1.50969 1.05741 2.82268
-0.025758449 1.095125 2.826355
0.035435468 1.0708113 2.8109913
0.055163428 1.0682428 2.8312447
-1.9626809 1.122372 2.8339875
-1.51557 1.10931 2.8342299
-1.46746 1.10914 2.8178101
-0.071547747 1.1175699 2.8247499
-1.9562876 1.1701 2.8115175
-1.9460467 1.1815534 2.8115866
-1.60437 1.19015 2.84215
-0.098074801 1.15189 2.8371501
-1.95218 1.2153 2.81126
-1.9409662 1.2209637 2.808135
-1.88868 1.23691 2.8118
-1.80946 1.23638 2.8215101
-1.47918 1.228575 2.8277349
-1.9559 1.2738301 2.80832
-1.92379 1.2594301 2.8004301
-1.868765 1.2792499 2.8236699
-1.4636199 1.2689101 2.8401401
-1.44293 1.2625 2.8238399
-2.02108 1.3167651 2.8176849
1.7794199 -1.7622099 2.870805
1.6621799 -1.57362 2.8976099
1.7093199 -1.5533201 2.87257
1.75213 -1.57012 2.88026
1.74367 -1.5082099 2.8826399
1.7803299 -1.50169 2.8843701
-0.35369799 -1.4566801 2.8704901
-0.34520501 -1.4547 2.88902
-0.27482152 -1.46773 2.8662848
1.44222 -1.45766 2.88239
-0.55433202 -1.42228 2.8819499
-0.463687 -1.403705 2.8824301
-0.350122 -1.44303 2.87554
-0.34592301 -1.4154201 2.87501
-0.26142481 -1.4257517 2.8828948
1.4612949 -1.4414949 2.87819
1.5678051 -1.42811 2.872215
-1.1729566 -1.3577601 2.8856833
-1.00248 -1.39027 2.88906
-0.993662 -1.37218 2.8591599
-0.86090899 -1.3714429 2.8846889
-0.78690445 -1.362152 2.871484
-0.72917199 -1.37867 2.87252
-0.67613447 -1.3852501 2.8845401
-0.58706135 -1.3855066 2.86833
-0.31528348 -1.3908451 2.8828402
-1.7449 -1.31205 2.8885
-1.51999 -1.30396 2.89311
-1.473223 -1.3116 2.8690143
-1.3804725 -1.3172534 2.8812873
-1.2660629 -1.3214915 2.8711872
-1.20455 -1.30462 2.8687201
-1.1641841 -1.3380241 2.8750668
-1.1056366 -1.3253299 2.8778667
-1.09387 -1.33401 2.89587
-1.03418 -1.33472 2.8644099
-0.98942405 -1.3442376 2.8725824
-0.93023902 -1.34737 2.85235
-0.88243151 -1.339505 2.8698301
-0.22619067 -1.3099166 2.8830397
-2.0328801 -1.26027 2.8541501
-1.9789 -1.25173 2.88393
-1.93311 -1.265945 2.8844199
-1.88582 -1.25621 2.8557401
-1.826972 -1.2675359 2.8850861
-1.7818136 -1.2606885 2.8623874
-1.7144279 -1.269088 2.8723822
-1.6783645 -1.2712636 2.8647828
-1.6182387 -1.2679425 2.874011
-1.5734897 -1.2766482 2.8644445
-1.5278401 -1.272645 2.860899
-1.4884174 -1.2660725 2.8794839
-1.4179014 -1.2802263 2.879627
-1.3684273 -1.2900785 2.8646457
-1.3417251 -1.2861049 2.8663599
-1.28308 -1.3 2.8738
-1.18898 -1.25159 2.88658
-0.77678198 -1.25072 2.88763
-0.73144197 -1.25247 2.8991699
-0.57943499 -1.262385 2.8754599
-0.53555202 -1.2674366 2.8767402
-0.48140851 -1.2796149 2.8877802
-0.4273935 -1.27404 2.87146
-0.37216902 -1.2762934 2.8809469
-0.27000397 -1.2895139 2.867146
-0.2211818 -1.290426 2.85533
-0.17415933 -1.2847134 2.8604898
-2.7172401 -1.20846 2.89696
-2.65078 -1.20006 2.8660901
-2.3197501 -1.22475 2.8591101
-2.2960351 -1.204555 2.8594351
-2.212256 -1.2201841 2.8671741
-2.1936266 -1.2143334 2.8547432
-2.1022201 -1.22101 2.85813
-2.0906539 -1.234332 2.8609641
-2.01736 -1.22885 2.86356
-1.9926076 -1.2342601 2.8562899
-1.9304349 -1.24157 2.863745
-1.8888134 -1.2420667 2.8640366
-1.81873 -1.2481 2.8645
-1.7843332 -1.2481933 2.8668797
-1.6297566 -1.2357966 2.8836668
-1.5675887 -1.2197343 2.87521
-1.5446301 -1.2219501 2.8570399
-1.41109 -1.2312533 2.8745601
-1.3816199 -1.2409033 2.8728435
-1.321515 -1.208075 2.8954051
-1.0255924 -1.2103175 2.8733275
-0.9711327 -1.2143799 2.8663132
-0.92493701 -1.21902 2.86601
-0.85035801 -1.22597 2.86518
-0.83203977 -1.2346975 2.87956
-0.77813303 -1.23965 2.8794398
-0.71549398 -1.2378349 2.8620901
-0.67630303 -1.2257299 2.87166
-0.64503002 -1.2481101 2.8544199
-0.443362 -1.22755 2.8533199
-3.0288601 -1.15517 2.8520701
-2.95928 -1.163515 2.8884902
-2.8132474 -1.15852 2.8608027
-2.7072971 -1.1614629 2.8553071
-2.6540899 -1.16996 2.8618901
-2.6178334 -1.165885 2.86236
-2.5093942 -1.172516 2.8525581
-2.47452 -1.18188 2.86095
-2.3767734 -1.1946133 2.8717401
-2.3033099 -1.19915 2.8554001
-1.60411 -1.17287 2.89517
-1.59852 -1.16532 2.89466
-1.48998 -1.17882 2.8923199
-1.40276 -1.1516449 2.8973398
-1.3824474 -1.1578774 2.8930275
-1.3246599 -1.19886 2.8931799
-1.2924399 -1.16509 2.8686399
-1.00146 -1.19734 2.8554299
-0.950818 -1.1981601 2.8887899
-0.9349227 -1.1925434 2.8853636
-0.87110299 -1.18865 2.86268
-0.78669202 -1.18753 2.86479
-0.16904551 -1.1596251 2.8831749
-3.45312 -1.12398 2.8818901
-3.1817999 -1.10334 2.8843801
-3.1417699 -1.1404999 2.8524599
-2.986155 -1.1050401 2.8717
-2.9089851 -1.127275 2.8515201
-2.88537 -1.11869 2.8793974
-2.8083401 -1.14213 2.8658099
-2.6673501 -1.11694 2.8764901
-2.6259749 -1.1152074 2.8809099
-2.58465 -1.10449 2.8541501
-2.5255599 -1.11973 2.8601298
-2.3169301 -1.13597 2.8545899
-1.9315701 -1.122295 2.8752751
-1.85014 -1.11751 2.8692
-1.5251288 -1.119669 2.8797655
-1.4898725 -1.1320026 2.8816574
-1.4051476 -1.1422675 2.8942199
-1.3585873 -1.1237857 2.881804
-1.3366807 -1.1152371 2.8754463
-1.2753016 -1.119905 2.8724535
-1.2448601 -1.10137 2.86918
-1.1723549 -1.109575 2.8665299
-1.06703 -1.1231949 2.8652601
-1.0465 -1.10712 2.8829899
-0.16939428 -1.1356457 2.8680656
-0.0973306 -1.13419 2.88783
-3.6605301 -1.07171 2.8536601
-3.62391 -1.0977 2.8808801
-3.5829799 -1.0828667 2.8788033
-3.4119999 -1.05495 2.8544199
-3.3918099 -1.05577 2.8912301
-3.2618599 -1.05963 2.8733799
-3.2495899 -1.05934 2.86323
-3.1688299 -1.07552 2.87728
-3.1352401 -1.07865 2.876925
-3.0536551 -1.096405 2.8952899
-3.0130999 -1.08525 2.8642499
-2.9254799 -1.09465 2.8559401
-2.5853534 -1.06428 2.89256
-1.66117 -1.08724 2.883445
-1.6292267 -1.0660766 2.8758068
-1.583555 -1.0896375 2.8587227
-1.5285436 -1.0821763 2.8749781
-1.49278 -1.05808 2.8684499
-1.38639 -1.07748 2.89854
-1.331901 -1.082655 2.876235
-1.2722882 -1.0802237 2.8725863
-1.2394562 -1.0761746 2.8758457
-1.1704634 -1.0732499 2.8714101
-1.1058234 -1.0789499 2.8794968
-1.0813328 -1.0693704 2.8760133
-1.0399472 -1.0769643 2.8695571
-0.99487001 -1.06471 2.8606501
-0.28101468 -1.0849301 2.8824065
-0.135832 -1.07383 2.8984001
-0.096195899 -1.06225 2.8877699
-4.1567001 -1.00028 2.8748
-4.1010399 -1.0070601 2.8701501
-4.0879774 -1.007375 2.8811998
-3.9491999 -1.00896 2.89714
-3.4410949 -1.037075 2.8695951
-3.393815 -1.03221 2.8515601
-3.3087649 -1.03818 2.8534851
-3.25703 -1.03216 2.86903
-1.8246235 -1.0232533 2.8724501
-1.772246 -1.0172961 2.8578041
-1.6770756 -1.0222678 2.8685465
-1.6292 -1.0224887 2.8666663
-1.59374 -1.0293833 2.87235
-1.5173442 -1.0372356 2.8652542
-1.37198 -1.0259399 2.8654001
-1.3214525 -1.0377725 2.8730226
-1.2736275 -1.0315825 2.8679399
-1.21562 -1.0407866 2.8623569
-1.1845977 -1.0419881 2.8689814
-1.1093251 -1.03953 2.8811698
-1.0842201 -1.04792 2.8720801
-1.0061893 -1.0327475 2.8658967
-0.99380618 -1.0201939 2.881232
-4.1739516 -0.9800114 2.872936
-4.1303601 -0.97532201 2.8610799
-4.0766945 -0.99081117 2.880054
-4.0276098 -0.97502297 2.8559
-3.9877999 -0.99188203 2.8808663
-3.9335401 -0.98534799 2.8605199
-2.6501601 -0.98834401 2.8624101
-2.6472399 -0.99606401 2.8513701
-1.8232601 -0.99596572 2.8874927
-1.7853607 -0.98282278 2.8709807
-1.7222466 -0.98115963 2.8851089
-1.6206501 -0.99540246 2.8635173
-1.59841 -0.99886698 2.86941
-1.47147 -0.96298099 2.8873301
-1.37579 -0.96498001 2.8723199
4.2717299 -0.98340201 2.8959799
4.3283 -0.995754 2.89884
4.3624802 -0.98799098 2.88748
-1.8598 -0.91057253 2.87396
-1.8264475 -0.92538965 2.8681488
-1.6392699 -0.91930002 2.8803
4.2576799 -0.90137601 2.8980501
-1.94349 -0.87631297 2.89675
-1.87885 -0.871656 2.89867
4.2580605 -0.87999845 2.8973451
4.3100901 -0.88293201 2.8570499
4.636663 -0.86124772 2.8987134
4.705852 -0.87590885 2.8975151
4.7769299 -0.85141599 2.8959701
4.8092251 -0.85225648 2.8935649
-4.3744302 -0.817523 2.8972099
-3.6468599 -0.83791 2.89552
-2.6742537 -0.81823754 2.8717551
4.2456751 -0.82499951 2.8948798
4.2784781 -0.82452053 2.8937416
4.642025 -0.82666814 2.8958049
4.7198668 -0.82493651 2.893137
4.7976398 -0.841739 2.8928001
4.81988 -0.82694101 2.8910267
-4.3358798 -0.76267755 2.8688703
-4.2717452 -0.76817924 2.8915548
-4.0679674 -0.77819353 2.8827901
-4.0306797 -0.78285849 2.8942151
-3.9526501 -0.791695 2.8689401
-3.3796401 -0.78195655 2.8849976
-2.70697 -0.77770799 2.8769801
4.2441702 -0.78118801 2.8971801
4.2802925 -0.787489 2.8936472
4.6467786 -0.76956767 2.8907626
4.6554351 -0.76737046 2.890965
4.7242961 -0.77848697 2.8872614
4.7652302 -0.77988404 2.8880298
-4.3263373 -0.72511929 2.8834574
-4.2669725 -0.73605251 2.8787177
-4.2315898 -0.72692901 2.8854699
-4.01302 -0.73364699 2.8615999
-3.9526801 -0.74107498 2.8680401
-3.91787 -0.73068351 2.87079
-3.88271 -0.7205255 2.8828449
-3.8330898 -0.72668099 2.86325
-3.4532199 -0.71305799 2.8799601
-3.4465301 -0.73575002 2.8543799
4.2493 -0.74048698 2.8940001
4.2600617 -0.71946144 2.8870084
4.6483302 -0.743487 2.8889201
4.6554079 -0.72384316 2.8858612
4.7251163 -0.72443575 2.8820715
4.7737126 -0.72510397 2.8820326
-4.2734537 -0.6740461 2.8675213
-4.2172751 -0.67379069 2.8639674
-4.1844501 -0.69115299 2.8516099
-3.92556 -0.69525802 2.8717599
-3.50787 -0.67712998 2.8849399
-3.4994099 -0.65507102 2.8986199
-0.37093401 -0.65902996 2.88045
0.040852051 -0.65778053 2.8815651
0.076063797 -0.67398095 2.8701901
0.12812024 -0.68448853 2.8650026
4.2551899 -0.69787151 2.88855
4.6575212 -0.67136103 2.8824213
4.7280698 -0.67633945 2.8778481
-4.2689443 -0.63995939 2.855948
-4.2462902 -0.63727999 2.86043
-3.49722 -0.6444 2.8717301
-0.40393767 -0.6222077 2.8637733
-0.38817939 -0.61943781 2.8762424
-0.26854497 -0.61233401 2.8924251
-0.153194 -0.63740402 2.85148
0.032334995 -0.63198096 2.8817167
0.073519126 -0.6252889 2.864608
0.86049563 -0.619371 2.8529568
4.6644926 -0.62203306 2.8776245
4.73248 -0.64144099 2.8731301
-4.3639102 -0.58671403 2.86254
-4.3018398 -0.57657403 2.8545001
-0.31881183 -0.56304151 2.8883915
-0.28894135 -0.56684417 2.8865967
-0.22551668 -0.57534432 2.8886433
-0.16685134 -0.56695372 2.8770487
-0.14277725 -0.55685699 2.8696001
0.023156701 -0.55914599 2.87783
0.082154445 -0.57900673 2.8593292
0.10234649 -0.57162297 2.8540149
0.89726299 -0.55290902 2.8622
4.6709175 -0.57027221 2.8729124
-0.30515951 -0.53907001 2.8706698
-0.2694315 -0.54606801 2.8788199
-0.22257684 -0.53833014 2.8757632
-0.17186999 -0.54869801 2.8854899
-0.144532 -0.53510797 2.8782001
0.027384607 -0.51209539 2.8739603
0.073627234 -0.52413398 2.8581951
0.89744103 -0.53382701 2.8521099
4.6731801 -0.54901302 2.87219
0.028830349 -0.4942095 2.88203
0.070838556 -0.47018224 2.8631127
0.915286 -0.47364801 2.87589
2.15624 -0.46213999 2.8768799
-0.48135501 -0.439735 2.8527999
-0.365522 -0.444383 2.8561101
-0.32393962 -0.41978639 2.870894
-0.27644199 -0.40942299 2.8886099
-0.22023082 -0.40558016 2.8716452
-0.19537814 -0.40256518 2.8796859
0.085621215 -0.42532188 2.8572392
2.1828401 -0.43324801 2.89203
-0.43207401 -0.39101499 2.8965199
-0.390434 -0.39902699 2.85553
-0.32404575 -0.37529826 2.868325
-0.27214101 -0.37848735 2.8880768
-0.22976026 -0.38249213 2.8849351
-0.18892685 -0.39108115 2.8772299
0.038054999 -0.39145201 2.8738101
0.085223697 -0.398711 2.85866
0.101423 -0.39282301 2.8519199
-0.28151649 -0.30973202 2.8949549
-0.22090225 -0.32419276 2.8827074
0.093717843 -0.32191876 2.8551073
0.102804 -0.33961499 2.85075
2.1220837 -0.31199774 2.8843398
2.1553099 -0.326011 2.88289
2.20486 -0.330006 2.8706601
-0.326217 -0.25377399 2.8510301
-0.22303377 -0.2748253 2.8806543
-0.198998 -0.27490199 2.8692901
2.0676999 -0.29534 2.89346
2.1314099 -0.26157001 2.8789001
4.3340001 -0.263028 2.8518801
5.1386824 -0.26293775 2.8671176
-0.21640052 -0.22610581 2.8806865
-0.18744983 -0.23396717 2.86742
0.96265602 -0.21902201 2.8508
2.1182232 -0.244251 2.8915532
5.1388302 -0.23752999 2.87514
5.1623502 -0.22246701 2.8706501
-0.30627 -0.15674099 2.86376
-0.29115418 -0.15815984 2.8851335
-0.21963149 -0.17908224 2.8828862
-0.1861268 -0.17675646 2.8632722
0.96702802 -0.195599 2.8507099
-0.31869739 -0.12439542 2.8784602
-0.29270831 -0.11588567 2.8927867
-0.20853639 -0.1376982 2.8699882
-0.18142784 -0.12643699 2.8623152
-0.14698701 -0.141074 2.85571
0.98492801 -0.129255 2.86342
5.0850401 -0.128258 2.85445
-0.35678551 -0.075043403 2.869005
-0.31974044 -0.077993095 2.8757596
-0.29350477 -0.075016126 2.8891201
-0.21145225 -0.084259525 2.8829799
-0.17972577 -0.079347275 2.8610673
-0.144926 -0.0656498 2.85641
5.1698198 -0.058303501 2.8652401
-0.30895421 -0.01167435 2.8767822
-0.28816068 -0.012925215 2.8785632
-0.18542913 -0.035260111 2.864234
6.0896797 -0.035510175 2.8826425
-4.4623427 0.023678629 2.8791668
-3.9517801 0.048755001 2.8527501
-0.30802971 0.01451397 2.86058
-0.28606996 0.020417657 2.8774605
-0.1667088 0.029777635 2.8583179
-4.4566374 0.075011134 2.8868299
-4.0323153 0.063056998 2.8767149
-3.9702325 0.064258702 2.8782673
-3.9166999 0.081710421 2.88518
-3.8746951 0.084155351 2.8745151
-0.353405 0.0752609 2.8594601
-0.15912899 0.065714501 2.8571601
1.0125099 0.072757937 2.8526199
1.34323 0.064748302 2.8546801
-4.5032802 0.10632 2.89151
-4.4592915 0.11695966 2.8761768
-4.4489021 0.1111296 2.8792958
2.0648301 0.14771201 2.89674
-4.4639597 0.17359 2.8700652
-4.4407954 0.17624199 2.8542416
-3.9215899 0.16796799 2.8646734
-3.50035 0.19649 2.8600199
2.1282001 0.17591 2.8765199
-4.4336214 0.23035084 2.8540733
-3.7672167 0.23554499 2.8940134
-3.5296099 0.245839 2.8682301
-0.212249 0.204923 2.87694
-0.16397101 0.220835 2.8928299
2.7188718 0.22855745 2.8691554
2.7564666 0.22331236 2.8737032
2.80545 0.204063 2.8636799
-4.4685297 0.269153 2.8697748
-4.4338651 0.27192399 2.8547738
-4.1911998 0.27187499 2.89693
-4.07759 0.274331 2.89097
-3.8917999 0.27660599 2.8951099
2.3216021 0.27499244 2.8748343
2.3632967 0.26953232 2.8762133
-4.4535999 0.34804499 2.87394
-4.4252257 0.33230799 2.8553822
-4.1781802 0.33370301 2.8819699
-4.11657 0.31220701 2.8511901
-4.0157599 0.315588 2.8844099
-3.9147501 0.32357568 2.8843234
-3.8922701 0.30965 2.8787601
-3.79653 0.31756601 2.87186
-3.7453699 0.314403 2.8994701
-0.189043 0.344955 2.8608799
2.7369759 0.33953714 2.8729913
2.7647297 0.33570087 2.8617773
3.17839 0.34678301 2.88095
-4.42237 0.37617376 2.854845
-4.1732597 0.35339749 2.8958149
-4.0250649 0.36708301 2.8835702
-3.99877 0.39194599 2.8661699
-3.9093699 0.37707201 2.8635499
-3.82827 0.37525201 2.8921852
-3.7546699 0.39768299 2.8944399
-3.73948 0.38336575 2.8931699
-3.6523299 0.374578 2.8986599
-3.6496699 0.387633 2.89589
2.3229599 0.39495701 2.8503799
2.3613749 0.39176798 2.8570652
2.7346065 0.35338032 2.88097
2.7644434 0.36649036 2.8784399
2.8202057 0.36577502 2.8794038
3.1444273 0.36315063 2.8675492
3.1592433 0.36758268 2.8882234
3.9372201 0.382422 2.8896201
6.1613102 0.36770701 2.8929901
-4.3645601 0.400433 2.8935499
-4.2099299 0.43756399 2.89324
-4.1741524 0.43719074 2.8957551
-4.0791254 0.424707 2.8909302
-4.0002599 0.41617599 2.87748
-3.9874599 0.41791001 2.89731
-3.9161174 0.4107205 2.8970575
-3.8726201 0.42335701 2.8974199
-3.8373699 0.41553167 2.8824368
-3.5314167 0.43451968 2.8989532
2.32465 0.412128 2.85589
2.36903 0.41233 2.8821001
-4.2410302 0.45089099 2.8864701
-4.17137 0.498115 2.89252
-4.0861402 0.49603599 2.8887701
-3.9890802 0.49640265 2.8796699
-3.9126949 0.49253049 2.8900151
-3.89147 0.46991748 2.89077
-3.8160164 0.48642233 2.8931434
-3.7342019 0.47404519 2.8896101
-3.667515 0.47987801 2.89726
-3.644645 0.4652195 2.892555
-3.5565 0.48606551 2.89217
-3.5382512 0.48288855 2.8926687
-4.16009 0.50245601 2.8742599
-4.0663214 0.50686443 2.8907399
-4.0441198 0.520217 2.8791699
-3.9751101 0.51292902 2.8789401
-3.90975 0.52327454 2.878545
-3.8924999 0.50357252 2.8879452
-3.8258901 0.50382298 2.8927
-3.67523 0.53149599 2.8863399
-3.6204798 0.52395135 2.8798301
-3.5700133 0.51513964 2.8873398
-3.5248911 0.52870703 2.8917217
-4.1437001 0.57566845 2.8862
-4.054646 0.58852446 2.8751662
-3.9742255 0.58474839 2.8811514
-3.9038601 0.59474945 2.8915
-3.8899484 0.58117259 2.8796937
-3.8168249 0.58192497 2.8860202
-3.78544 0.56356299 2.88375
-3.7200668 0.56393403 2.88902
-3.6706049 0.56243348 2.87643
-3.6342099 0.55960327 2.8913066
-3.5847399 0.56933266 2.87972
-3.5163989 0.57799274 2.8890002
-4.21277 0.61082202 2.8938701
-4.1700168 0.6164127 2.8771667
-4.1399016 0.62046117 2.8828619
-4.0767097 0.61177552 2.8898549
-4.0213733 0.62042832 2.8679135
-3.98296 0.61377454 2.870095
-3.8954 0.63765103 2.8747001
-3.8158798 0.63364506 2.8641701
-3.7725801 0.64768851 2.8807349
-3.7139399 0.63878268 2.8786399
-3.6795943 0.62714112 2.8777871
-3.63868 0.61627197 2.8793399
-3.5737915 0.61329848 2.8782098
-3.5144308 0.62005663 2.8849409
-3.481714 0.62722975 2.8875134
-3.4241376 0.61668921 2.8895974
-3.3948033 0.61423266 2.8711767
-3.3091826 0.62329453 2.8653376
-3.2330101 0.63115501 2.8842599
-2.7128699 0.64769399 2.8566
-2.6558557 0.64512217 2.8603055
-2.6421299 0.64233148 2.86164
-0.116592 0.62192601 2.8638101
-4.130837 0.68394566 2.8670266
-4.0611401 0.68269902 2.87955
-4.0331397 0.66960001 2.8617032
-3.9658451 0.67217398 2.8663149
-3.9165301 0.679856 2.8958249
-3.8762224 0.66027296 2.8744202
-3.8147225 0.66301173 2.8853474
-3.76263 0.656991 2.8959799
-3.2789199 0.69882101 2.8701601
-3.2404201 0.69373 2.85621
-3.1918199 0.69522202 2.8619101
3.1895421 0.67612576 2.874202
3.2120919 0.68847477 2.8724742
-3.3645301 0.70821851 2.876725
-1.3190815 0.73367912 2.870579
-1.275925 0.72577673 2.8607509
-1.2306601 0.72703117 2.8692071
-1.17707 0.74407876 2.87798
-1.1277317 0.74241108 2.8738801
-1.0803734 0.74041975 2.8895731
-1.0224116 0.74588072 2.8823967
3.0815232 0.74016529 2.878397
3.1281099 0.73443401 2.8728299
3.196125 0.71155453 2.8731699
3.20437 0.70178598 2.87974
-1.4748434 0.78875566 2.8807299
-1.418555 0.78760999 2.87918
-1.3572149 0.7838015 2.889015
-1.3335176 0.77782422 2.8790565
-1.2698901 0.77172804 2.8756649
-1.2219524 0.77648401 2.88325
-1.1768039 0.76439267 2.8825719
-1.1208861 0.77580363 2.8744979
-1.0647314 0.75764024 2.8801951
-1.0145136 0.75513512 2.8812058
-0.99674356 0.7632398 2.8596222
3.1616349 0.77793896 2.875155
3.2400851 0.76922953 2.8687248
3.2709999 0.76677066 2.8743365
3.3077099 0.76327097 2.89662
-1.5069751 0.82253629 2.8694952
-1.3694935 0.80738467 2.8955433
-1.33894 0.80230796 2.87644
-1.23195 0.81710303 2.85077
-1.171505 0.81129098 2.8824
-0.98302042 0.82753927 2.874455
-1.9991 0.89159101 2.89872
-1.49121 0.85527599 2.8708701
-1.0001301 0.865201 2.8513501
-0.97591269 0.87712085 2.8769002
-2.10603 0.91120648 2.8866401
-2.0987401 0.90849602 2.8879299
-2.00195 0.912099 2.89469
-1.9951184 0.93393475 2.8921084
-1.9177901 0.913059 2.8850501
-1.58251 0.93013501 2.88289
-1.50945 0.93811297 2.8703799
-0.97351754 0.92072248 2.8694229
-2.0109599 0.97252131 2.8636899
-1.9921713 0.97315663 2.8834424
-1.5094233 0.99020869 2.8703401
-1.487615 0.96534097 2.883635
-0.96753949 0.9702425 2.867995
-1.981971 1.026971 2.866142
-1.93979 1.01758 2.85182
-1.5074522 1.0239407 2.8656681
-1.49694 1.0379766 2.8713334
-0.96210277 1.0429275 2.8756976
0.124402 1.0152299 2.8598499
-1.9736432 1.0590922 2.8608968
-1.94513 1.0761499 2.8596699
-1.50152 1.0740499 2.86168
-1.4927285 1.0815828 2.8611944
-0.95454895 1.06556 2.8870449
-0.94973302 1.08866 2.8898499
0.033293553 1.0711451 2.8710699
0.07375548 1.0753658 2.8693225
-1.959635 1.11654 2.8624849
-1.56637 1.14675 2.89709
-1.4806325 1.1176549 2.871815
-0.95729798 1.10136 2.89376
-0.066246368 1.1414766 2.8687735
-0.0368177 1.1217819 2.878628
-1.5653801 1.1715751 2.87466
-0.058139101 1.18647 2.8684599
-1.9695899 1.2450401 2.8503799
-1.6005599 1.22969 2.8944099
-1.5641849 1.2128401 2.8930402
-1.80669 1.2550499 2.85413
-1.78479 1.2821 2.88427
-1.70578 1.26907 2.8898699
-1.61199 1.27976 2.89113
-1.45383 1.25256 2.8589399
-1.82608 1.30373 2.89732
1.77569 -1.76209 2.9172499
2.8242319 -1.769006 2.944186
2.8671701 -1.7545 2.94293
1.7800474 -1.6691875 2.9395151
1.84119 -1.69212 2.9411399
2.0620966 -1.66234 2.9395168
1.72737 -1.6266401 2.9320326
1.7682819 -1.6170639 2.931422
1.8329926 -1.6185374 2.9396949
1.7767862 -1.5803708 2.9323375
1.53592 -1.50027 2.9029901
-0.44805899 -1.45474 2.9342799
-0.33915699 -1.45959 2.9185674
-0.24623901 -1.48384 2.9252701
1.5139875 -1.4672074 2.9225824
1.6763999 -1.48822 2.9205
-1.10475 -1.40689 2.9326701
-1.04773 -1.4364901 2.9224999
-0.56665623 -1.425324 2.9218178
-0.54342097 -1.4220901 2.9414401
-0.46291801 -1.4342999 2.9243567
-0.444754 -1.44591 2.90921
-0.37214825 -1.4372751 2.9238651
-0.34299636 -1.4327568 2.9161065
-0.28494951 -1.4267668 2.9266198
1.4714301 -1.4276075 2.9156125
1.5182633 -1.4419832 2.9249966
1.58895 -1.4215 2.9140601
-1.30392 -1.36421 2.9261999
-1.21702 -1.37646 2.93701
-1.1819234 -1.3710467 2.9308732
-1.0747766 -1.3726467 2.9210732
-1.0259 -1.3734566 2.9235432
-0.98181713 -1.365996 2.9195261
-0.86655873 -1.38582 2.9193225
-0.80046201 -1.3865499 2.92064
-0.687756 -1.39354 2.90727
-0.26705801 -1.39856 2.91646
-1.7180049 -1.3158901 2.923075
-1.60742 -1.31598 2.91956
-1.5632 -1.31809 2.9169099
-1.50151 -1.342625 2.9128251
-1.49358 -1.32666 2.90412
-1.3906699 -1.3427 2.90681
-1.276208 -1.3282521 2.9150779
-1.1696633 -1.3398333 2.9157436
-1.11139 -1.34427 2.9203401
-0.81318599 -1.3234299 2.92328
-0.387907 -1.30514 2.9235699
-0.33278701 -1.30414 2.90344
-0.27570301 -1.316865 2.9203701
-0.234956 -1.33114 2.9442799
-2.0104001 -1.25339 2.91113
-1.85967 -1.27906 2.93927
-1.7178701 -1.27491 2.9066899
-1.67497 -1.26845 2.9116001
-1.625405 -1.2621425 2.9314752
-1.476275 -1.2727175 2.9290602
-1.41934 -1.2737701 2.9270151
-1.38503 -1.26343 2.91414
-1.3189199 -1.256865 2.9100599
-0.898844 -1.2503999 2.9268501
-0.82043397 -1.25002 2.9115601
-0.780316 -1.26764 2.93943
-0.72749233 -1.2594067 2.9115133
-0.62314802 -1.26689 2.90646
-0.48790801 -1.2866 2.90801
-0.36973199 -1.29787 2.9128101
-2.50702 -1.21094 2.9260201
-2.48965 -1.20461 2.91433
-2.42643 -1.21635 2.9186001
-2.24261 -1.23752 2.9096699
-2.187525 -1.236465 2.9228802
-2.07146 -1.2486399 2.91134
-1.60862 -1.22679 2.9087901
-1.54966 -1.22778 2.9020901
-1.4954734 -1.22565 2.9069984
-1.323285 -1.20981 2.9107254
-1.0354326 -1.2296026 2.9154525
-0.96810198 -1.24947 2.9487
-0.91774601 -1.23474 2.9010601
-0.89103836 -1.2294832 2.9102767
